# .PCD v0.7 - Point Cloud Data file format
VERSION 0.7
FIELDS x y z intensity
SIZE 4 4 4 4
TYPE F F F F
COUNT 1 1 1 1
WIDTH 1074
HEIGHT 1
VIEWPOINT 0 0 0 1 0 0 0
POINTS 1074
DATA ascii
-0.043413937 -0.21706969 0.9372384 1.0669644
-0.021464484 -0.21464485 0.92676872 1.0790179
0.071864136 -0.21871693 0.94435072 1.0589286
0.074988663 -0.21871693 0.94435072 1.0589286
-0.65860862 -0.28051847 1.2287438 0.81383932
-0.6545431 -0.28051847 1.2287438 0.81383932
-0.39984927 -0.21724093 0.9515717 1.0508929
-0.4303152 -0.24538635 1.0748559 0.93035728
-0.41074246 -0.24860729 1.0889645 0.91830361
-0.40536585 -0.24752429 1.0842206 0.9223215
-0.3130191 -0.22498247 0.98548162 1.0147322
-0.29019478 -0.22498247 0.98548162 1.0147322
-0.2771523 -0.22498247 0.98548162 1.0147322
-0.23110408 -0.22147474 0.97011685 1.0308037
-0.22468452 -0.22147474 0.97011685 1.0308037
-0.22147474 -0.22147474 0.97011685 1.0308037
-0.20462824 -0.22061482 0.9663502 1.0348215
-0.18154217 -0.21976158 0.96261275 1.0388393
-0.17198732 -0.21976158 0.96261275 1.0388393
-0.15742096 -0.21724093 0.9515717 1.0508929
-0.15606257 -0.21976158 0.96261275 1.0388393
-0.14482729 -0.21724093 0.9515717 1.0508929
-0.14167887 -0.21724093 0.9515717 1.0508929
-0.12085413 -0.20847338 0.91316754 1.0950893
-0.10574736 -0.20847338 0.91316754 1.0950893
-0.064634122 -0.21236926 0.93023252 1.075
-0.062019907 -0.21396868 0.9372384 1.0669644
-0.043251067 -0.21316597 0.93372232 1.0709822
-0.026994096 -0.20695473 0.90651548 1.1031251
0.006155631 -0.21236926 0.93023252 1.075
0.015622638 -0.21559241 0.94435072 1.0589286
0.075274274 -0.21641353 0.94794744 1.0549108
0.078113191 -0.21559241 0.94435072 1.0589286
0.36689997 -0.20252879 0.88712865 1.1272322
0.36983517 -0.20252879 0.88712865 1.1272322
0.37277037 -0.20252879 0.88712865 1.1272322
0.37570557 -0.20252879 0.88712865 1.1272322
0.37864077 -0.20252879 0.88712865 1.1272322
-0.6545431 -0.27645299 1.2287438 0.81383932
-0.65047765 -0.27645299 1.2287438 0.81383932
-0.4376303 -0.21409252 0.9515717 1.0508929
-0.41951203 -0.23772348 1.0566037 0.94642866
-0.41074246 -0.24500428 1.0889645 0.91830361
-0.40536585 -0.24393699 1.0842206 0.9223215
-0.40177855 -0.24393699 1.0842206 0.9223215
-0.3130191 -0.22172186 0.98548162 1.0147322
-0.30975845 -0.22172186 0.98548162 1.0147322
-0.29019478 -0.22172186 0.98548162 1.0147322
-0.28693417 -0.22172186 0.98548162 1.0147322
-0.20542584 -0.21826495 0.97011685 1.0308037
-0.20221606 -0.21826495 0.97011685 1.0308037
-0.18659393 -0.22260329 0.98939931 1.0107143
-0.14007227 -0.21166478 0.94078118 1.0629464
-0.11783278 -0.20545202 0.91316754 1.0950893
-0.10272601 -0.20545202 0.91316754 1.0950893
-0.087619245 -0.20545202 0.91316754 1.0950893
-0.070789754 -0.20929146 0.93023252 1.075
-0.0613271 -0.20851214 0.92676872 1.0790179
-0.058044601 -0.20773858 0.92333049 1.0830358
-0.0400116 -0.20929146 0.93023252 1.075
-0.036933787 -0.20929146 0.93023252 1.075
-0.030436877 -0.20697077 0.91991782 1.0870537
-0.026994096 -0.2039554 0.90651548 1.1031251
0.018818568 -0.2132771 0.94794744 1.0549108
0.078113191 -0.21246788 0.94435072 1.0589286
0.36983517 -0.19959359 0.88712865 1.1272322
0.37277037 -0.19959359 0.88712865 1.1272322
-0.65047765 -0.2723875 1.2287438 0.81383932
-0.45257881 -0.21505518 0.97011685 1.0308037
-0.43448186 -0.2109441 0.9515717 1.0508929
-0.41550508 -0.20621364 0.93023252 1.075
-0.42492381 -0.23724914 1.0702341 0.93437505
-0.40177855 -0.24034967 1.0842206 0.9223215
-0.30975845 -0.21846123 0.98548162 1.0147322
-0.30649784 -0.21846123 0.98548162 1.0147322
-0.29038352 -0.22108746 0.99732852 1.0026786
-0.29176018 -0.22468887 1.0135746 0.98660719
-0.23285306 -0.22287363 1.005386 0.99464285
-0.22952658 -0.22287363 1.005386 0.99464285
-0.20623539 -0.21932971 0.98939931 1.0107143
-0.20296182 -0.21932971 0.98939931 1.0107143
-0.16626045 -0.2142202 0.9663502 1.0348215
-0.16306312 -0.2142202 0.9663502 1.0348215
-0.13185327 -0.20544578 0.92676872 1.0790179
-0.12387548 -0.20243068 0.91316754 1.0950893
-0.11783278 -0.20243068 0.91316754 1.0950893
-0.10574736 -0.20243068 0.91316754 1.0950893
-0.1031043 -0.20317613 0.91653025 1.0910715
-0.067459807 -0.20544578 0.92676872 1.0790179
-0.058044601 -0.20468359 0.92333049 1.0830358
-0.036524251 -0.20392707 0.91991782 1.0870537
0.022038935 -0.2109441 0.9515717 1.0508929
0.037494332 -0.20934336 0.94435072 1.0589286
0.077524886 -0.2077667 0.9372384 1.0669644
0.080625884 -0.2077667 0.9372384 1.0669644
-0.65613002 -0.27235585 1.2472161 0.80178565
-0.45257881 -0.2118454 0.97011685 1.0308037
-0.41550508 -0.20313582 0.93023252 1.075
-0.41242728 -0.20313582 0.93023252 1.075
-0.3936905 -0.20621882 0.94435072 1.0589286
-0.42492381 -0.2337081 1.0702341 0.93437505
-0.42320254 -0.23471738 1.0748559 0.93035728
-0.39475197 -0.23471738 1.0748559 0.93035728
-0.31989142 -0.22224036 1.0177191 0.98258936
-0.31652415 -0.22224036 1.0177191 0.98258936
-0.31315687 -0.22224036 1.0177191 0.98258936
-0.29295319 -0.22224036 1.0177191 0.98258936
-0.28958592 -0.22224036 1.0177191 0.98258936
-0.22952658 -0.21954715 1.005386 0.99464285
-0.20624126 -0.21954715 1.005386 0.99464285
-0.19450679 -0.22133531 1.0135746 0.98660719
-0.14520001 -0.20389789 0.93372232 1.0709822
-0.12830912 -0.20162861 0.92333049 1.0830358
-0.12433165 -0.20014364 0.91653025 1.0910715
-0.12041234 -0.19868037 0.90982938 1.0991071
-0.10425607 -0.20237942 0.92676872 1.0790179
-0.10118971 -0.20237942 0.92676872 1.0790179
-0.067711942 -0.20313582 0.93023252 1.075
-0.054989621 -0.20162861 0.92333049 1.0830358
-0.0092680855 -0.20389789 0.93372232 1.0709822
0.022038935 -0.20779568 0.9515717 1.0508929
0.025187355 -0.20779568 0.9515717 1.0508929
0.079429455 -0.20162861 0.92333049 1.0830358
0.082484432 -0.20162861 0.92333049 1.0830358
0.098490097 -0.20313582 0.93023252 1.075
0.27846223 -0.17671642 0.80924851 1.2357143
-0.44936904 -0.20863563 0.97011685 1.0308037
-0.42173538 -0.2015647 0.9372384 1.0669644
-0.41550508 -0.200058 0.93023252 1.075
-0.41242728 -0.200058 0.93023252 1.075
-0.4124324 -0.2015647 0.9372384 1.0669644
-0.42688972 -0.23317505 1.0842206 0.9223215
-0.42330241 -0.23317505 1.0842206 0.9223215
-0.33811036 -0.21977173 1.0218977 0.97857153
-0.31913409 -0.22067784 1.0261109 0.97455353
-0.31573907 -0.22067784 1.0261109 0.97455353
-0.28958592 -0.21887308 1.0177191 0.98258936
-0.28621864 -0.21887308 1.0177191 0.98258936
-0.2262001 -0.21622069 1.005386 0.99464285
-0.22560763 -0.21887308 1.0177191 0.98258936
-0.20540397 -0.21887308 1.0177191 0.98258936
-0.19450679 -0.21798174 1.0135746 0.98660719
-0.16945776 -0.20782556 0.9663502 1.0348215
-0.12342265 -0.19567005 0.90982938 1.0991071
-0.11826669 -0.19711116 0.91653025 1.0910715
-0.11080135 -0.200058 0.93023252 1.075
-0.10510336 -0.20702177 0.96261275 1.0388393
-0.10271292 -0.20863563 0.97011685 1.0308037
-0.081237718 -0.2030943 0.94435072 1.0589286
-0.052128036 -0.19931307 0.92676872 1.0790179
-0.036524251 -0.19783971 0.91991782 1.0870537
-0.012357448 -0.20080853 0.93372232 1.0709822
0 -0.20080853 0.93372232 1.0709822
0.024996221 -0.2030943 0.94435072 1.0589286
0.028120749 -0.2030943 0.94435072 1.0589286
0.083101019 -0.200058 0.93023252 1.075
0.086178832 -0.200058 0.93023252 1.075
0.30965155 -0.18810607 0.87465829 1.1433036
0.32392916 -0.19495736 0.90651548 1.1031251
0.32932752 -0.19638796 0.91316754 1.0950893
0.33234885 -0.19638796 0.91316754 1.0950893
-0.64234668 -0.26019105 1.2287438 0.81383932
-0.63828117 -0.26019105 1.2287438 0.81383932
-0.39900556 -0.19056983 0.8999598 1.1111608
-0.41252017 -0.22373974 1.0566037 0.94642866
-0.41971511 -0.22958775 1.0842206 0.9223215
-0.38478166 -0.22185609 1.0477082 0.95446426
-0.32866427 -0.21034513 0.99334806 1.0066965
-0.31106153 -0.21639062 1.0218977 0.97857153
-0.29197374 -0.21728279 1.0261109 0.97455353
-0.28739381 -0.21639062 1.0218977 0.97857153
-0.28285137 -0.21550581 1.0177191 0.98258936
-0.23383844 -0.20785639 0.98159504 1.0187501
-0.22560763 -0.21550581 1.0177191 0.98258936
-0.20540397 -0.21550581 1.0177191 0.98258936
-0.20203669 -0.21550581 1.0177191 0.98258936
-0.15427254 -0.20149884 0.9515717 1.0508929
-0.14828937 -0.19771917 0.93372232 1.0709822
-0.11147326 -0.20383683 0.96261275 1.0388393
-0.10271292 -0.20542584 0.97011685 1.0308037
-0.081237718 -0.19996977 0.94435072 1.0589286
-0.057830065 -0.19479601 0.91991782 1.0870537
-0.051742692 -0.19479601 0.91991782 1.0870537
-0.018194877 -0.19407868 0.91653025 1.0910715
0 -0.19846371 0.9372384 1.0669644
0.015742097 -0.20149884 0.9515717 1.0508929
0.028120749 -0.19996977 0.94435072 1.0589286
0.083726875 -0.19846371 0.9372384 1.0669644
0.086827874 -0.19846371 0.9372384 1.0669644
0.10310941 -0.19996977 0.94435072 1.0589286
0.26239711 -0.17136137 0.80924851 1.2357143
0.27034876 -0.17477092 0.82534999 1.2116072
0.2757847 -0.17136137 0.80924851 1.2357143
-0.63828117 -0.25612557 1.2287438 0.81383932
-0.40475884 -0.19318037 0.92676872 1.0790179
-0.41971511 -0.22600044 1.0842206 0.9223215
-0.39171466 -0.21838959 1.0477082 0.95446426
-0.38478166 -0.21838959 1.0477082 0.95446426
-0.38131514 -0.21838959 1.0477082 0.95446426
-0.33472925 -0.21300952 1.0218977 0.97857153
-0.31106153 -0.21300952 1.0218977 0.97857153
-0.30642232 -0.21213853 1.0177191 0.98258936
-0.28621864 -0.21213853 1.0177191 0.98258936
-0.28285137 -0.21213853 1.0177191 0.98258936
-0.24167542 -0.20300736 0.97391301 1.0267857
-0.22560763 -0.21213853 1.0177191 0.98258936
-0.22224036 -0.21213853 1.0177191 0.98258936
-0.20203669 -0.21213853 1.0177191 0.98258936
-0.19866942 -0.21213853 1.0177191 0.98258936
-0.15742096 -0.19835041 0.9515717 1.0508929
-0.12830912 -0.19246368 0.92333049 1.0830358
-0.11784317 -0.20065187 0.96261275 1.0388393
-0.10913248 -0.20221606 0.97011685 1.0308037
-0.099116802 -0.20143092 0.9663502 1.0348215
-0.071592495 -0.19610119 0.94078118 1.0629464
-0.030324794 -0.19104621 0.91653025 1.0910715
-0.018194877 -0.19104621 0.91653025 1.0910715
0.018747166 -0.19684525 0.94435072 1.0589286
0.028120749 -0.19684525 0.94435072 1.0589286
0.03066355 -0.19318037 0.92676872 1.0790179
0.086827874 -0.19536272 0.9372384 1.0669644
0.089928865 -0.19536272 0.9372384 1.0669644
0.2749069 -0.17494076 0.83926558 1.1915179
0.27582359 -0.17376885 0.83364344 1.1995536
0.28127196 -0.17204012 0.82534999 1.2116072
0.28400275 -0.17204012 0.82534999 1.2116072
0.35713685 -0.1991117 0.95522386 1.046875
-0.63421571 -0.25206009 1.2287438 0.81383932
-0.44615924 -0.19900629 0.97011685 1.0308037
-0.44122964 -0.1982336 0.9663502 1.0348215
-0.40779579 -0.19154043 0.93372232 1.0709822
-0.40169251 -0.19011401 0.92676872 1.0790179
-0.39171466 -0.21492308 1.0477082 0.95446426
-0.38131514 -0.21492308 1.0477082 0.95446426
-0.35900488 -0.21402214 1.0433162 0.95848215
-0.35555291 -0.21402214 1.0433162 0.95848215
-0.3348411 -0.21402214 1.0433162 0.95848215
-0.30768043 -0.20962842 1.0218977 0.97857153
-0.30429932 -0.20962842 1.0218977 0.97857153
-0.22224036 -0.20877124 1.0177191 0.98258936
-0.21887308 -0.20877124 1.0177191 0.98258936
-0.19948511 -0.20962842 1.0218977 0.97857153
-0.19530214 -0.20877124 1.0177191 0.98258936
-0.16369872 -0.19900629 0.97011685 1.0308037
-0.12433165 -0.18801372 0.91653025 1.0910715
-0.10913248 -0.19900629 0.97011685 1.0308037
-0.098733462 -0.19746692 0.96261275 1.0388393
-0.067209542 -0.1894087 0.92333049 1.0830358
-0.05458463 -0.18801372 0.91653025 1.0910715
-0.033729903 -0.19011401 0.92676872 1.0790179
-0.03066355 -0.19011401 0.92676872 1.0790179
0.0030893621 -0.19154043 0.93372232 1.0709822
0.015622638 -0.19372071 0.94435072 1.0589286
0.018747166 -0.19372071 0.94435072 1.0589286
0.03066355 -0.19011401 0.92676872 1.0790179
0.048699003 -0.18870863 0.91991782 1.0870537
0.089928865 -0.19226171 0.9372384 1.0669644
0.093735829 -0.19372071 0.94435072 1.0589286
0.26488718 -0.16930933 0.82534999 1.2116072
0.27768376 -0.17216393 0.83926558 1.1915179
0.2804606 -0.17216393 0.83926558 1.1915179
0.28685653 -0.17101061 0.83364344 1.1995536
0.29156795 -0.17216393 0.83926558 1.1915179
0.29939261 -0.17511642 0.85365844 1.1714287
0.30965155 -0.17942426 0.87465829 1.1433036
0.32392916 -0.18595932 0.90651548 1.1031251
0.32932752 -0.18732391 0.91316754 1.0950893
-0.62095338 -0.2443752 1.2108107 0.82589298
-0.44122964 -0.19503629 0.9663502 1.0348215
-0.39007261 -0.18163687 0.8999598 1.1111608
-0.39518115 -0.21145658 1.0477082 0.95446426
-0.39171466 -0.21145658 1.0477082 0.95446426
-0.36029878 -0.20540397 1.0177191 0.98258936
-0.35693148 -0.20540397 1.0177191 0.98258936
-0.34825367 -0.20624731 1.0218977 0.97857153
-0.32931924 -0.20709766 1.0261109 0.97455353
-0.32722861 -0.21235047 1.0521371 0.95044643
-0.30305505 -0.20540397 1.0177191 0.98258936
-0.22952658 -0.2029148 1.005386 0.99464285
-0.21887308 -0.20540397 1.0177191 0.98258936
-0.21550581 -0.20540397 1.0177191 0.98258936
-0.19691253 -0.20709766 1.0261109 0.97455353
-0.1395448 -0.18916072 0.9372384 1.0669644
-0.12642013 -0.19279069 0.95522386 1.046875
-0.12421306 -0.19428197 0.96261275 1.0388393
-0.10633719 -0.19656268 0.97391301 1.0267857
-0.095548511 -0.19428197 0.96261275 1.0388393
-0.077817932 -0.18987575 0.94078118 1.0629464
-0.05458463 -0.18498124 0.91653025 1.0910715
-0.03956794 -0.18566495 0.91991782 1.0870537
-0.012311262 -0.18774675 0.93023252 1.075
0.0030893621 -0.18845108 0.93372232 1.0709822
0.024622524 -0.18774675 0.93023252 1.075
0.033480566 -0.18566495 0.91991782 1.0870537
0.048699003 -0.18566495 0.91991782 1.0870537
0.095180392 -0.19353347 0.95890409 1.0428572
0.098353073 -0.19353347 0.95890409 1.0428572
0.29156795 -0.16938709 0.83926558 1.1915179
0.29939261 -0.17229196 0.85365844 1.1714287
-0.61496991 -0.23805287 1.1991434 0.83392859
-0.61100239 -0.23805287 1.1991434 0.83392859
-0.38022074 -0.17548651 0.88397789 1.13125
-0.36029878 -0.20203669 1.0177191 0.98258936
-0.36245686 -0.20711821 1.0433162 0.95848215
-0.32722861 -0.20886932 1.0521371 0.95044643
-0.30091822 -0.20286621 1.0218977 0.97857153
-0.27388445 -0.19798876 0.99732852 1.0026786
-0.21462819 -0.20121393 1.0135746 0.98660719
-0.196104 -0.20286621 1.0218977 0.97857153
-0.19193485 -0.20203669 1.0177191 0.98258936
-0.17213108 -0.19486536 0.98159504 1.0187501
-0.13593192 -0.18536171 0.93372232 1.0709822
-0.13284257 -0.18536171 0.93372232 1.0709822
-0.12325962 -0.18963018 0.95522386 1.046875
-0.10271292 -0.19258673 0.97011685 1.0308037
-0.084043369 -0.18676303 0.94078118 1.0629464
-0.060873754 -0.18262126 0.91991782 1.0870537
-0.021544708 -0.18466893 0.93023252 1.075
-0.012450869 -0.18676303 0.94078118 1.0629464
0.0061327098 -0.1839813 0.92676872 1.0790179
0.024530839 -0.1839813 0.92676872 1.0790179
0.027597195 -0.1839813 0.92676872 1.0790179
0.045655314 -0.18262126 0.91991782 1.0870537
0.051742692 -0.18262126 0.91991782 1.0870537
0.095180392 -0.19036078 0.95890409 1.0428572
0.098353073 -0.19036078 0.95890409 1.0428572
0.25999597 -0.17930757 0.90322578 1.1071429
-0.61100239 -0.23408532 1.1991434 0.83392859
-0.6070348 -0.23408532 1.1991434 0.83392859
-0.38709497 -0.17568156 0.8999598 1.1111608
-0.3743712 -0.17256172 0.88397789 1.13125
-0.38050243 -0.19866942 1.0177191 0.98258936
-0.36245686 -0.20366624 1.0433162 0.95848215
-0.35555291 -0.20366624 1.0433162 0.95848215
-0.32722861 -0.20538816 1.0521371 0.95044643
-0.30091822 -0.19948511 1.0218977 0.97857153
-0.277217 -0.19705786 1.0094637 0.99062502
-0.23285306 -0.19626185 1.005386 0.99464285
-0.21550581 -0.19866942 1.0177191 0.98258936
-0.21127462 -0.19786036 1.0135746 0.98660719
-0.19193485 -0.19866942 1.0177191 0.98258936
-0.18856758 -0.19866942 1.0177191 0.98258936
-0.12102811 -0.18791208 0.96261275 1.0388393
-0.10271292 -0.18937695 0.97011685 1.0308037
-0.099503145 -0.18937695 0.97011685 1.0308037
-0.088494085 -0.18646967 0.95522386 1.046875
-0.066961132 -0.17957757 0.91991782 1.0870537
-0.063917443 -0.17957757 0.91991782 1.0870537
-0.018536171 -0.18227236 0.93372232 1.0709822
-0.0094092842 -0.18504925 0.94794744 1.0549108
0.0030893621 -0.18227236 0.93372232 1.0709822
0.024530839 -0.18091494 0.92676872 1.0790179
0.045655314 -0.17957757 0.91991782 1.0870537
0.054786377 -0.17957757 0.91991782 1.0870537
0.099116802 -0.18864165 0.9663502 1.0348215
0.10152575 -0.1871881 0.95890409 1.0428572
0.36555472 -0.19086486 0.97773892 1.0227679
-0.6070348 -0.23011778 1.1991434 0.83392859
-0.3743712 -0.16963695 0.88397789 1.13125
-0.38050243 -0.19530214 1.0177191 0.98258936
-0.37256488 -0.19293538 1.005386 0.99464285
-0.35693148 -0.19530214 1.0177191 0.98258936
-0.35944334 -0.19854966 1.034642 0.96651793
-0.32722861 -0.20190701 1.0521371 0.95044643
-0.29077491 -0.196104 1.0218977 0.97857153
-0.28621864 -0.19530214 1.0177191 0.98258936
-0.25281188 -0.19293538 1.005386 0.99464285
-0.23285306 -0.19293538 1.005386 0.99464285
-0.21127462 -0.19450679 1.0135746 0.98660719
-0.20877124 -0.19530214 1.0177191 0.98258936
-0.14884777 -0.17985773 0.9372384 1.0669644
-0.12197159 -0.18616717 0.97011685 1.0308037
-0.11922655 -0.18689565 0.97391301 1.0267857
-0.099892512 -0.18689565 0.97391301 1.0267857
-0.070264518 -0.17718878 0.92333049 1.0830358
-0.018676303 -0.1805376 0.94078118 1.0629464
-0.0062728557 -0.18191282 0.94794744 1.0549108
0.0030893621 -0.17918299 0.93372232 1.0709822
0.033234887 -0.17523849 0.91316754 1.0950893
0.036524251 -0.17653389 0.91991782 1.0870537
0.045655314 -0.17653389 0.91991782 1.0870537
0.054786377 -0.17653389 0.91991782 1.0870537
0.057830065 -0.17653389 0.91991782 1.0870537
0.10231412 -0.18544434 0.9663502 1.0348215
0.10469843 -0.18401542 0.95890409 1.0428572
0.1183007 -0.18544434 0.9663502 1.0348215
-0.59731156 -0.22399184 1.1876987 0.84196436
-0.38113967 -0.16972625 0.8999598 1.1111608
-0.37713516 -0.19193485 1.0177191 0.98258936
-0.37376788 -0.19193485 1.0177191 0.98258936
-0.33419091 -0.19842586 1.0521371 0.95044643
-0.29077491 -0.1927229 1.0218977 0.97857153
-0.28739381 -0.1927229 1.0218977 0.97857153
-0.26504707 -0.18884605 1.001341 0.9986608
-0.25281188 -0.18960892 1.005386 0.99464285
-0.2494854 -0.18960892 1.005386 0.99464285
-0.22897492 -0.19193485 1.0177191 0.98258936
-0.22224036 -0.19193485 1.0177191 0.98258936
-0.20877124 -0.19193485 1.0177191 0.98258936
-0.18553296 -0.18884605 1.001341 0.9986608
-0.12839115 -0.1829574 0.97011685 1.0308037
-0.11969491 -0.18439487 0.97773892 1.0227679
-0.11738215 -0.18585508 0.98548162 1.0147322
-0.096293367 -0.1829574 0.97011685 1.0308037
-0.074705213 -0.17742488 0.94078118 1.0629464
-0.071055323 -0.17609364 0.93372232 1.0709822
-0.048699003 -0.1734902 0.91991782 1.0870537
-0.045824684 -0.17413381 0.92333049 1.0830358
-0.036933787 -0.17543548 0.93023252 1.075
-0.034500707 -0.1787764 0.94794744 1.0549108
-0.015742097 -0.1794599 0.9515717 1.0508929
-0.0062968386 -0.1794599 0.9515717 1.0508929
0.0061327098 -0.17478223 0.92676872 1.0790179
0.030213533 -0.17221715 0.91316754 1.0950893
0.033113394 -0.17158759 0.90982938 1.0991071
0.052322865 -0.17543548 0.93023252 1.075
0.055400677 -0.17543548 0.93023252 1.075
0.058478493 -0.17543548 0.93023252 1.075
0.060873754 -0.1734902 0.91991782 1.0870537
0.10551143 -0.18224703 0.9663502 1.0348215
0.10870875 -0.18224703 0.9663502 1.0348215
0.12244888 -0.18367332 0.97391301 1.0267857
0.25401905 -0.17034219 0.90322578 1.1071429
0.25669479 -0.15565535 0.82534999 1.2116072
-0.59056371 -0.21901701 1.182058 0.84598219
-0.39852768 -0.17300427 0.93372232 1.0709822
-0.38252282 -0.16735373 0.90322578 1.1071429
-0.37953436 -0.16735373 0.90322578 1.1071429
-0.36923841 -0.18628244 1.005386 0.99464285
-0.35602006 -0.19170313 1.034642 0.96651793
-0.35259682 -0.19170313 1.034642 0.96651793
-0.25861263 -0.18332036 0.98939931 1.0107143
-0.25281188 -0.18628244 1.005386 0.99464285
-0.23379746 -0.18703797 1.0094637 0.99062502
-0.20540397 -0.18856758 1.0177191 0.98258936
-0.17862658 -0.18187435 0.98159504 1.0187501
-0.1554613 -0.17767006 0.95890409 1.0428572
-0.14854364 -0.17698817 0.95522386 1.046875
-0.14538313 -0.17698817 0.95522386 1.046875
-0.13376792 -0.17835721 0.96261275 1.0388393
-0.11645991 -0.18115987 0.97773892 1.0227679
-0.09591949 -0.17904972 0.9663502 1.0348215
-0.092363559 -0.17835721 0.96261275 1.0388393
-0.08093065 -0.17431216 0.94078118 1.0629464
-0.077234052 -0.17300427 0.93372232 1.0709822
-0.048699003 -0.17044652 0.91991782 1.0870537
-0.034500707 -0.17563997 0.94794744 1.0549108
-0.012642012 -0.17698817 0.95522386 1.046875
0.0031127173 -0.17431216 0.94078118 1.0629464
0.024170827 -0.16919579 0.91316754 1.0950893
0.027092777 -0.16857728 0.90982938 1.0991071
0.030103086 -0.16857728 0.90982938 1.0991071
0.052322865 -0.17235766 0.93023252 1.075
0.055400677 -0.17235766 0.93023252 1.075
0.10551143 -0.17904972 0.9663502 1.0348215
0.10955953 -0.18045098 0.97391301 1.0267857
0.27493829 -0.16735373 0.90322578 1.1071429
0.2980758 -0.16206062 0.87465829 1.1433036
0.30096972 -0.16206062 0.87465829 1.1433036
-0.59338188 -0.21613248 1.1876987 0.84196436
-0.58945221 -0.21613248 1.1876987 0.84196436
-0.39234897 -0.1699149 0.93372232 1.0709822
-0.36923841 -0.18295597 1.005386 0.99464285
-0.37192139 -0.1859607 1.0218977 0.97857153
-0.35454622 -0.18750042 1.0303588 0.9705357
-0.35259682 -0.18827985 1.034642 0.96651793
-0.34917355 -0.18827985 1.034642 0.96651793
-0.29968777 -0.1852003 1.0177191 0.98258936
-0.26173401 -0.18221988 1.001341 0.9986608
-0.25842091 -0.18221988 1.001341 0.9986608
-0.20456749 -0.1844461 1.0135746 0.98660719
-0.19786036 -0.1844461 1.0135746 0.98660719
-0.17933385 -0.17933385 0.98548162 1.0147322
-0.14764982 -0.17653784 0.97011685 1.0308037
-0.13533823 -0.17722864 0.97391301 1.0267857
-0.11190607 -0.17585239 0.9663502 1.0348215
-0.09591949 -0.17585239 0.9663502 1.0348215
-0.091654591 -0.17382766 0.95522386 1.046875
-0.088155739 -0.17316307 0.9515717 1.0508929
-0.08093065 -0.17119946 0.94078118 1.0629464
-0.054786377 -0.16740282 0.91991782 1.0870537
-0.051742692 -0.16740282 0.91991782 1.0870537
-0.031364281 -0.17250353 0.94794744 1.0549108
-0.012593677 -0.17316307 0.9515717 1.0508929
-0.0094092842 -0.17250353 0.94794744 1.0549108
0.021227356 -0.16678637 0.91653025 1.0910715
0.024170827 -0.16617443 0.91316754 1.0950893
0.10955953 -0.17722864 0.97391301 1.0267857
0.11278187 -0.17722864 0.97391301 1.0267857
0.13146572 -0.18076535 0.99334806 1.0066965
0.31422076 -0.16617443 0.91316754 1.0950893
-0.5866527 -0.21119498 1.182058 0.84598219
-0.58274168 -0.21119498 1.182058 0.84598219
-0.37376788 -0.18183303 1.0177191 0.98258936
-0.37192139 -0.18257959 1.0218977 0.97857153
-0.36703333 -0.18183303 1.0177191 0.98258936
-0.35704964 -0.18719107 1.0477082 0.95446426
-0.35210094 -0.18640639 1.0433162 0.95848215
-0.28161252 -0.17890678 1.001341 0.9986608
-0.25842091 -0.17890678 1.001341 0.9986608
-0.25613835 -0.17962949 1.005386 0.99464285
-0.2356976 -0.17677321 0.98939931 1.0107143
-0.2262001 -0.17962949 1.005386 0.99464285
-0.19293538 -0.17962949 1.005386 0.99464285
-0.17607324 -0.17607324 0.98548162 1.0147322
-0.14822759 -0.1740063 0.97391301 1.0267857
-0.11147326 -0.17198732 0.96261275 1.0388393
-0.10998992 -0.17468987 0.97773892 1.0227679
-0.061099581 -0.16496886 0.92333049 1.0830358
-0.057830065 -0.16435914 0.91991782 1.0870537
-0.031364281 -0.1693671 0.94794744 1.0549108
-0.028014455 -0.16808674 0.94078118 1.0629464
-0.0094092842 -0.1693671 0.94794744 1.0549108
-0.0031364278 -0.1693671 0.94794744 1.0549108
0.015331775 -0.16558316 0.92676872 1.0790179
0.01839813 -0.16558316 0.92676872 1.0790179
0.021227356 -0.16375388 0.91653025 1.0910715
0.042611629 -0.16435914 0.91991782 1.0870537
0.064393453 -0.16558316 0.92676872 1.0790179
0.11278187 -0.1740063 0.97391301 1.0267857
0.11510339 -0.17265508 0.9663502 1.0348215
0.13475235 -0.17747872 0.99334806 1.0066965
0.25103059 -0.16137682 0.90322578 1.1071429
-0.57725859 -0.20533359 1.1709358 0.85401779
-0.35661447 -0.16435276 0.9372384 1.0669644
-0.36854029 -0.17919849 1.0218977 0.97857153
-0.36366606 -0.17846574 1.0177191 0.98258936
-0.35210094 -0.18295442 1.0433162 0.95848215
-0.34575027 -0.18143331 1.034642 0.96651793
-0.34090984 -0.18068221 1.0303588 0.9705357
-0.32252914 -0.1799373 1.0261109 0.97455353
-0.27942365 -0.17630303 1.005386 0.99464285
-0.27609718 -0.17630303 1.005386 0.99464285
-0.2571772 -0.17701808 1.0094637 0.99062502
-0.23950599 -0.17630303 1.005386 0.99464285
-0.2262001 -0.17630303 1.005386 0.99464285
-0.22108746 -0.17489007 0.99732852 1.0026786
-0.19138914 -0.17489007 0.99732852 1.0026786
-0.18659393 -0.17349961 0.98939931 1.0107143
-0.16888332 -0.17213108 0.98159504 1.0187501
-0.12567122 -0.17078397 0.97391301 1.0267857
-0.10870875 -0.16945776 0.9663502 1.0348215
-0.088155739 -0.16686623 0.9515717 1.0508929
-0.064154558 -0.16191389 0.92333049 1.0830358
-0.062254347 -0.16497402 0.94078118 1.0629464
-0.048879664 -0.16191389 0.92333049 1.0830358
-0.046340428 -0.16373618 0.93372232 1.0709822
-0.037211943 -0.16435276 0.9372384 1.0669644
-0.028014455 -0.16497402 0.94078118 1.0629464
-0.025091423 -0.16623068 0.94794744 1.0549108
-0.0062728557 -0.16623068 0.94794744 1.0549108
0.01226542 -0.16251682 0.92676872 1.0790179
0.015331775 -0.16251682 0.92676872 1.0790179
0.03956794 -0.16131544 0.91991782 1.0870537
0.042769708 -0.16191389 0.92333049 1.0830358
0.11600421 -0.17078397 0.97391301 1.0267857
0.25103059 -0.15838836 0.90322578 1.1071429
-0.57069933 -0.20051599 1.1654526 0.85803574
-0.40764192 -0.1669085 0.97011685 1.0308037
-0.37381279 -0.16064683 0.93372232 1.0709822
-0.35661447 -0.16125177 0.9372384 1.0669644
-0.35127994 -0.16309425 0.94794744 1.0549108
-0.36366606 -0.17509846 1.0177191 0.98258936
-0.34431893 -0.17727311 1.0303588 0.9705357
-0.33811036 -0.17581739 1.0218977 0.97857153
-0.277217 -0.17367812 1.0094637 0.99062502
-0.25822455 -0.1743854 1.0135746 0.98660719
-0.25487098 -0.1743854 1.0135746 0.98660719
-0.24047738 -0.17367812 1.0094637 0.99062502
-0.2315037 -0.169552 0.98548162 1.0147322
-0.21846123 -0.169552 0.98548162 1.0147322
-0.20785639 -0.16888332 0.98159504 1.0187501
-0.16888332 -0.16888332 0.98159504 1.0187501
-0.16629139 -0.169552 0.98548162 1.0147322
-0.15713173 -0.17022604 0.98939931 1.0107143
-0.12567122 -0.16756162 0.97391301 1.0267857
-0.12102811 -0.16561742 0.96261275 1.0388393
-0.11465821 -0.16561742 0.96261275 1.0388393
-0.1042966 -0.16434616 0.95522386 1.046875
-0.084043369 -0.1618613 0.94078118 1.0629464
-0.066961132 -0.15827176 0.91991782 1.0870537
-0.063917443 -0.15827176 0.91991782 1.0870537
-0.06178724 -0.16064683 0.93372232 1.0709822
-0.037211943 -0.16125177 0.9372384 1.0669644
-0.034110948 -0.16125177 0.9372384 1.0669644
-0.024807964 -0.16125177 0.9372384 1.0669644
-0.0062490553 -0.16247544 0.94435072 1.0589286
-0.0031127173 -0.1618613 0.94078118 1.0629464
0.0061327098 -0.15945046 0.92676872 1.0790179
0.0091990652 -0.15945046 0.92676872 1.0790179
0.01226542 -0.15945046 0.92676872 1.0790179
0.015331775 -0.15945046 0.92676872 1.0790179
0.036796261 -0.15945046 0.92676872 1.0790179
0.039862614 -0.15945046 0.92676872 1.0790179
0.076144315 -0.16497934 0.95890409 1.0428572
0.11600421 -0.16756162 0.97391301 1.0267857
0.11922655 -0.16756162 0.97391301 1.0267857
-0.55899072 -0.19393554 1.1493074 0.87008923
-0.44530416 -0.17605047 1.0433162 0.95848215
-0.41083756 -0.16629139 0.98548162 1.0147322
-0.38242087 -0.16118565 0.95522386 1.046875
-0.36869428 -0.15935092 0.94435072 1.0589286
-0.36515918 -0.17243628 1.0218977 0.97857153
-0.36177808 -0.17243628 1.0218977 0.97857153
-0.35839698 -0.17243628 1.0218977 0.97857153
-0.33672783 -0.17173119 1.0177191 0.98258936
-0.2911498 -0.16498488 0.97773892 1.0227679
-0.28791478 -0.16498488 0.97773892 1.0227679
-0.277217 -0.17033815 1.0094637 0.99062502
-0.27387702 -0.17033815 1.0094637 0.99062502
-0.25487098 -0.17103183 1.0135746 0.98660719
-0.25151742 -0.17103183 1.0135746 0.98660719
-0.19138914 -0.16829045 0.99732852 1.0026786
-0.16629139 -0.16629139 0.98548162 1.0147322
-0.16367888 -0.16695246 0.98939931 1.0107143
-0.14500526 -0.16433929 0.97391301 1.0267857
-0.14178291 -0.16433929 0.97391301 1.0267857
-0.11784317 -0.16243246 0.96261275 1.0388393
-0.084362246 -0.15935092 0.94435072 1.0589286
-0.071055323 -0.15755746 0.93372232 1.0709822
-0.066961132 -0.15522808 0.91991782 1.0870537
-0.033982981 -0.15755746 0.93372232 1.0709822
-0.021625534 -0.15755746 0.93372232 1.0709822
-0.0030893621 -0.15755746 0.93372232 1.0709822
0.0061327098 -0.1563841 0.92676872 1.0790179
0.0091990652 -0.1563841 0.92676872 1.0790179
0.03066355 -0.1563841 0.92676872 1.0790179
0.033729903 -0.1563841 0.92676872 1.0790179
0.036796261 -0.1563841 0.92676872 1.0790179
0.05602891 -0.15874858 0.94078118 1.0629464
0.074705213 -0.15874858 0.94078118 1.0629464
0.077817932 -0.15874858 0.94078118 1.0629464
0.12160578 -0.16761878 0.99334806 1.0066965
0.12489243 -0.16761878 0.99334806 1.0066965
0.14843471 -0.17605047 1.0433162 0.95848215
-0.56158394 -0.19101493 1.1546391 0.86607146
-0.55776364 -0.19101493 1.1546391 0.86607146
-0.46432737 -0.17858745 1.079518 0.92633939
-0.45483729 -0.17629352 1.0656518 0.93839282
-0.44185218 -0.17259851 1.0433162 0.95848215
-0.40105569 -0.16303077 0.98548162 1.0147322
-0.38242087 -0.15802516 0.95522386 1.046875
-0.35619617 -0.15622638 0.94435072 1.0589286
-0.36177808 -0.16905518 1.0218977 0.97857153
-0.36136442 -0.17045492 1.0303588 0.9705357
-0.2772505 -0.16905518 1.0218977 0.97857153
-0.27163878 -0.16767827 1.0135746 0.98660719
-0.25151742 -0.16767827 1.0135746 0.98660719
-0.24816383 -0.16767827 1.0135746 0.98660719
-0.18585508 -0.16303077 0.98548162 1.0147322
-0.16367888 -0.16367888 0.98939931 1.0107143
-0.14500526 -0.16111694 0.97391301 1.0267857
-0.14178291 -0.16111694 0.97391301 1.0267857
-0.11693861 -0.15802516 0.95522386 1.046875
-0.091304161 -0.15742096 0.9515717 1.0508929
-0.081237718 -0.15622638 0.94435072 1.0589286
-0.051742692 -0.15218438 0.91991782 1.0870537
-0.018536171 -0.1544681 0.93372232 1.0709822
0.027597195 -0.15331775 0.92676872 1.0790179
0.030778155 -0.15389077 0.93023252 1.075
0.033855971 -0.15389077 0.93023252 1.075
0.059141628 -0.15563586 0.94078118 1.0629464
0.12489243 -0.16433214 0.99334806 1.0066965
0.15252607 -0.17332508 1.0477082 0.95446426
-0.55135262 -0.18378422 1.1336032 0.8821429
-0.54760194 -0.18378422 1.1336032 0.8821429
-0.46432737 -0.1750157 1.079518 0.92633939
-0.45483729 -0.17276765 1.0656518 0.93839282
-0.44185218 -0.16914654 1.0433162 0.95848215
-0.40105569 -0.15977016 0.98548162 1.0147322
-0.35450047 -0.16234134 1.001341 0.9986608
-0.35839698 -0.16567408 1.0218977 0.97857153
-0.29272956 -0.16299713 1.005386 0.99464285
-0.27163878 -0.1643247 1.0135746 0.98660719
-0.26828521 -0.1643247 1.0135746 0.98660719
-0.24816383 -0.1643247 1.0135746 0.98660719
-0.18478951 -0.16169083 0.99732852 1.0026786
-0.16104549 -0.16104549 0.99334806 1.0066965
-0.14178291 -0.15789461 0.97391301 1.0267857
-0.12739801 -0.15606257 0.96261275 1.0388393
-0.10853484 -0.15194878 0.9372384 1.0669644
-0.10623394 -0.15310186 0.94435072 1.0589286
-0.093735829 -0.15310186 0.94435072 1.0589286
-0.090611301 -0.15310186 0.94435072 1.0589286
-0.054989621 -0.14969397 0.92333049 1.0830358
-0.051742692 -0.1491407 0.91991782 1.0870537
-0.018536171 -0.15137874 0.93372232 1.0709822
0.024530839 -0.15025139 0.92676872 1.0790179
0.027597195 -0.15025139 0.92676872 1.0790179
0.062254347 -0.15252315 0.94078118 1.0629464
0.12489243 -0.16104549 0.99334806 1.0066965
0.12817907 -0.16104549 0.99334806 1.0066965
0.15188669 -0.16914654 1.0433162 0.95848215
0.15533866 -0.16914654 1.0433162 0.95848215
-0.54760194 -0.18003352 1.1336032 0.8821429
-0.54385126 -0.18003352 1.1336032 0.8821429
-0.46075562 -0.17144395 1.079518 0.92633939
-0.40265006 -0.15713173 0.98939931 1.0107143
-0.39622626 -0.1558923 0.98159504 1.0187501
-0.34215766 -0.14663899 0.92333049 1.0830358
-0.35781357 -0.15902825 1.001341 0.9986608
-0.34927958 -0.15967067 1.005386 0.99464285
-0.32932073 -0.15967067 1.005386 0.99464285
-0.31268838 -0.15967067 1.005386 0.99464285
-0.26828521 -0.16097113 1.0135746 0.98660719
-0.24816383 -0.16097113 1.0135746 0.98660719
-0.24381734 -0.16031826 1.0094637 0.99062502
-0.24047738 -0.16031826 1.0094637 0.99062502
-0.22409517 -0.1558923 0.98159504 1.0187501
-0.19563693 -0.15650955 0.98548162 1.0147322
-0.18076535 -0.15775885 0.99334806 1.0066965
-0.16234134 -0.15902825 1.001341 0.9986608
-0.15967067 -0.15967067 1.005386 0.99464285
-0.14614902 -0.1558923 0.98159504 1.0187501
-0.11248299 -0.14997733 0.94435072 1.0589286
-0.10853484 -0.14884777 0.9372384 1.0669644
-0.071864136 -0.14997733 0.94435072 1.0589286
-0.055608515 -0.14828937 0.93372232 1.0709822
-0.027804257 -0.14828937 0.93372232 1.0709822
-0.01544681 -0.14828937 0.93372232 1.0709822
-0.0062254346 -0.14941043 0.94078118 1.0629464
-0.0030893621 -0.14828937 0.93372232 1.0709822
0.01839813 -0.14718504 0.92676872 1.0790179
0.021544708 -0.14773515 0.93023252 1.075
0.024622524 -0.14773515 0.93023252 1.075
0.039862614 -0.14718504 0.92676872 1.0790179
0.0613271 -0.14718504 0.92676872 1.0790179
0.064393453 -0.14718504 0.92676872 1.0790179
0.12817907 -0.15775885 0.99334806 1.0066965
0.13146572 -0.15775885 0.99334806 1.0066965
0.15533866 -0.16569456 1.0433162 0.95848215
0.16013315 -0.16709545 1.0521371 0.95044643
0.24872513 -0.15112413 0.9515717 1.0508929
-0.54385126 -0.17628282 1.1336032 0.8821429
-0.54010057 -0.17628282 1.1336032 0.8821429
-0.39159301 -0.15085961 0.97011685 1.0308037
-0.38838324 -0.15085961 0.97011685 1.0308037
-0.38973072 -0.15264454 0.98159504 1.0187501
-0.34826761 -0.14358401 0.92333049 1.0830358
-0.35308453 -0.15956704 1.0261109 0.97455353
-0.32468268 -0.15571517 1.001341 0.9986608
-0.31143034 -0.15571517 1.001341 0.9986608
-0.28378388 -0.1550912 0.99732852 1.0026786
-0.26828521 -0.15761757 1.0135746 0.98660719
-0.26279131 -0.15634419 1.005386 0.99464285
-0.24381734 -0.15697829 1.0094637 0.99062502
-0.24047738 -0.15697829 1.0094637 0.99062502
-0.19656268 -0.15144993 0.97391301 1.0267857
-0.18004678 -0.15385816 0.98939931 1.0107143
-0.17747872 -0.15447222 0.99334806 1.0066965
-0.15967067 -0.15634419 1.005386 0.99464285
-0.071864136 -0.14685281 0.94435072 1.0589286
-0.052519154 -0.14520001 0.93372232 1.0709822
-0.027804257 -0.14520001 0.93372232 1.0709822
-0.0030778155 -0.14465733 0.93023252 1.075
0.015389077 -0.14465733 0.93023252 1.075
0.018466894 -0.14465733 0.93023252 1.075
0.021544708 -0.14465733 0.93023252 1.075
0.049245048 -0.14465733 0.93023252 1.075
0.052916195 -0.14629771 0.94078118 1.0629464
0.064393453 -0.14411868 0.92676872 1.0790179
0.13866006 -0.16292557 1.0477082 0.95446426
0.14212656 -0.16292557 1.0477082 0.95446426
0.15599257 -0.16292557 1.0477082 0.95446426
0.25187355 -0.14797571 0.9515717 1.0508929
-0.54257172 -0.17332152 1.1387899 0.87812513
-0.53880388 -0.17332152 1.1387899 0.87812513
-0.38838324 -0.14764982 0.97011685 1.0308037
-0.38973072 -0.14939678 0.98159504 1.0187501
-0.3400951 -0.1548948 1.0177191 0.98258936
-0.32468268 -0.15240207 1.001341 0.9986608
-0.29817796 -0.15240207 1.001341 0.9986608
-0.28492561 -0.15240207 1.001341 0.9986608
-0.26385713 -0.15363833 1.0094637 0.99062502
-0.26157808 -0.154264 1.0135746 0.98660719
-0.20300736 -0.14822759 0.97391301 1.0267857
-0.17747872 -0.15118557 0.99334806 1.0066965
-0.17419207 -0.15118557 0.99334806 1.0066965
-0.15571517 -0.15240207 1.001341 0.9986608
-0.12325962 -0.14538313 0.95522386 1.046875
-0.11963993 -0.14482729 0.9515717 1.0508929
-0.090611301 -0.14372827 0.94435072 1.0589286
-0.069265224 -0.14482729 0.9515717 1.0508929
-0.053319275 -0.14427568 0.94794744 1.0549108
-0.027804257 -0.14211065 0.93372232 1.0709822
-0.01544681 -0.14211065 0.93372232 1.0709822
0.015563587 -0.14318499 0.94078118 1.0629464
0.027700339 -0.14157951 0.93023252 1.075
0.0400116 -0.14157951 0.93023252 1.075
0.043089416 -0.14157951 0.93023252 1.075
0.052916195 -0.14318499 0.94078118 1.0629464
0.067459807 -0.14105232 0.92676872 1.0790179
0.14212656 -0.15945907 1.0477082 0.95446426
0.1636143 -0.16013315 1.0521371 0.95044643
-0.53880388 -0.16955367 1.1387899 0.87812513
-0.54248244 -0.17191344 1.1546391 0.86607146
-0.40919721 -0.147311 0.98939931 1.0107143
-0.39297849 -0.14614902 0.98159504 1.0187501
-0.39127386 -0.1467277 0.98548162 1.0147322
-0.38648298 -0.14614902 0.98159504 1.0187501
-0.3400951 -0.15152752 1.0177191 0.98258936
-0.33672783 -0.15152752 1.0177191 0.98258936
-0.31474343 -0.14908898 1.001341 0.9986608
-0.30642232 -0.15152752 1.0177191 0.98258936
-0.29938248 -0.14969124 1.005386 0.99464285
-0.26701507 -0.15404715 1.034642 0.96651793
-0.20867939 -0.1467277 0.98548162 1.0147322
-0.17419207 -0.14789893 0.99334806 1.0066965
-0.15634419 -0.14969124 1.005386 0.99464285
-0.15363833 -0.15029837 1.0094637 0.99062502
-0.12839115 -0.14444004 0.97011685 1.0308037
-0.12421306 -0.14332277 0.96261275 1.0388393
-0.096860357 -0.14060375 0.94435072 1.0589286
-0.088155739 -0.14167887 0.9515717 1.0508929
-0.066370562 -0.14222264 0.95522386 1.046875
-0.043909993 -0.14113925 0.94794744 1.0549108
-0.034500707 -0.14113925 0.94794744 1.0549108
-0.018536171 -0.13902129 0.93372232 1.0709822
-0.01544681 -0.13902129 0.93372232 1.0709822
-0.0062490553 -0.14060375 0.94435072 1.0589286
-0.0031245276 -0.14060375 0.94435072 1.0589286
0.0031245276 -0.14060375 0.94435072 1.0589286
0.0062254346 -0.14007227 0.94078118 1.0629464
0.015563587 -0.14007227 0.94078118 1.0629464
0.042928968 -0.13798597 0.92676872 1.0790179
0.0613271 -0.13798597 0.92676872 1.0790179
0.070264518 -0.13747406 0.92333049 1.0830358
0.08715608 -0.14007227 0.94078118 1.0629464
0.14153077 -0.15533866 1.0433162 0.95848215
0.14498274 -0.15533866 1.0433162 0.95848215
-0.54248244 -0.16809314 1.1546391 0.86607146
-0.39127386 -0.14346708 0.98548162 1.0147322
-0.39425755 -0.1457759 1.001341 0.9986608
-0.38323522 -0.14290127 0.98159504 1.0187501
-0.35308453 -0.14938192 1.0261109 0.97455353
-0.31601486 -0.14636478 1.005386 0.99464285
-0.29938248 -0.14636478 1.005386 0.99464285
-0.27728486 -0.15062387 1.034642 0.96651793
-0.25613835 -0.14636478 1.005386 0.99464285
-0.169552 -0.14346708 0.98548162 1.0147322
-0.15240207 -0.1457759 1.001341 0.9986608
-0.14789893 -0.14461228 0.99334806 1.0066965
-0.13160093 -0.14123027 0.97011685 1.0308037
-0.10156791 -0.13542388 0.93023252 1.075
-0.099984884 -0.13747922 0.94435072 1.0589286
-0.084362246 -0.13747922 0.94435072 1.0589286
-0.066370562 -0.13906214 0.95522386 1.046875
-0.063210063 -0.13906214 0.95522386 1.046875
-0.050182845 -0.13800283 0.94794744 1.0549108
-0.024714896 -0.13593192 0.93372232 1.0709822
-0.021625534 -0.13593192 0.93372232 1.0709822
0.0031364278 -0.13800283 0.94794744 1.0549108
0.0062254346 -0.13695955 0.94078118 1.0629464
0.015563587 -0.13695955 0.94078118 1.0629464
0.036933787 -0.13542388 0.93023252 1.075
0.048879664 -0.13441908 0.92333049 1.0830358
0.058260743 -0.13491961 0.92676872 1.0790179
0.079725228 -0.13491961 0.92676872 1.0790179
0.082791582 -0.13491961 0.92676872 1.0790179
0.13803899 -0.14461228 0.99334806 1.0066965
0.14132564 -0.14461228 0.99334806 1.0066965
0.26761565 -0.13853045 0.9515717 1.0508929
-0.53866214 -0.16427284 1.1546391 0.86607146
-0.39425755 -0.1424628 1.001341 0.9986608
-0.38475263 -0.14020647 0.98548162 1.0147322
-0.3400951 -0.14479296 1.0177191 0.98258936
-0.31474343 -0.1424628 1.001341 0.9986608
-0.31143034 -0.1424628 1.001341 0.9986608
-0.29938248 -0.1430383 1.005386 0.99464285
-0.27163878 -0.14420331 1.0135746 0.98660719
-0.25281188 -0.1430383 1.005386 0.99464285
-0.23522928 -0.1424628 1.001341 0.9986608
-0.22556373 -0.13856058 0.97391301 1.0267857
-0.19978502 -0.13856058 0.97391301 1.0267857
-0.16695246 -0.14076385 0.98939931 1.0107143
-0.14789893 -0.14132564 0.99334806 1.0066965
-0.13160093 -0.13802049 0.97011685 1.0308037
-0.10464573 -0.13234606 0.93023252 1.075
-0.10118971 -0.13185327 0.92676872 1.0790179
-0.085007325 -0.13538203 0.9515717 1.0508929
-0.081237718 -0.1343547 0.94435072 1.0589286
-0.063210063 -0.13590163 0.95522386 1.046875
-0.050182845 -0.1348664 0.94794744 1.0549108
-0.027494811 -0.13136409 0.92333049 1.0830358
-0.024439832 -0.13136409 0.92333049 1.0830358
0.015622638 -0.1343547 0.94435072 1.0589286
0.028227851 -0.1348664 0.94794744 1.0549108
0.079429455 -0.13136409 0.92333049 1.0830358
0.082484432 -0.13136409 0.92333049 1.0830358
0.13910489 -0.13910489 0.97773892 1.0227679
0.14233989 -0.13910489 0.97773892 1.0227679
0.26668561 -0.1333428 0.9372384 1.0669644
-0.56005388 -0.1568151 1.1284635 0.88616067
-0.53126812 -0.15825008 1.1387899 0.87812513
-0.52750027 -0.15825008 1.1387899 0.87812513
-0.39094445 -0.13914973 1.001341 0.9986608
-0.37998748 -0.13640575 0.98159504 1.0187501
-0.33597368 -0.13971183 1.005386 0.99464285
-0.3326472 -0.13971183 1.005386 0.99464285
-0.31268838 -0.13971183 1.005386 0.99464285
-0.3093619 -0.13971183 1.005386 0.99464285
-0.24516855 -0.13914973 1.001341 0.9986608
-0.24185547 -0.13914973 1.001341 0.9986608
-0.22556373 -0.13533823 0.97391301 1.0267857
-0.21435191 -0.13640575 0.98159504 1.0187501
-0.20136088 -0.13640575 0.98159504 1.0187501
-0.17818989 -0.13859214 0.99732852 1.0026786
-0.16761878 -0.13803899 0.99334806 1.0066965
-0.16433214 -0.13803899 0.99334806 1.0066965
-0.10853484 -0.13024181 0.9372384 1.0669644
-0.10464573 -0.12926824 0.93023252 1.075
-0.081858903 -0.13223362 0.9515717 1.0508929
-0.078710482 -0.13223362 0.9515717 1.0508929
-0.06004956 -0.13274112 0.95522386 1.046875
-0.033982981 -0.1297532 0.93372232 1.0709822
-0.03089362 -0.1297532 0.93372232 1.0709822
0.018747166 -0.13123016 0.94435072 1.0589286
0.028227851 -0.13172998 0.94794744 1.0549108
0.031364281 -0.13172998 0.94794744 1.0549108
0.054989621 -0.12830912 0.92333049 1.0830358
0.070004813 -0.12783489 0.91991782 1.0870537
0.073319495 -0.12830912 0.92333049 1.0830358
0.079429455 -0.12830912 0.92333049 1.0830358
0.09199065 -0.12878691 0.92676872 1.0790179
0.14659123 -0.14318213 1.0303588 0.9705357
0.15000033 -0.14318213 1.0303588 0.9705357
-0.55380923 -0.15239045 1.1233701 0.89017862
-0.52750027 -0.15448223 1.1387899 0.87812513
-0.52373242 -0.15448223 1.1387899 0.87812513
-0.37554413 -0.13160093 0.97011685 1.0308037
-0.37233433 -0.13160093 0.97011685 1.0308037
-0.3326472 -0.13638535 1.005386 0.99464285
-0.32799578 -0.13583663 1.001341 0.9986608
-0.31061661 -0.13693851 1.0094637 0.99062502
-0.3097896 -0.13805841 1.0177191 0.98258936
-0.24185547 -0.13583663 1.001341 0.9986608
-0.22438726 -0.13529232 0.99732852 1.0026786
-0.21535076 -0.13583663 1.001341 0.9986608
-0.16367888 -0.13421668 0.98939931 1.0107143
-0.11248299 -0.12810564 0.94435072 1.0589286
-0.078710482 -0.1290852 0.9515717 1.0508929
-0.06004956 -0.12958063 0.95522386 1.046875
-0.056889053 -0.12958063 0.95522386 1.046875
-0.037072342 -0.12666383 0.93372232 1.0709822
-0.033982981 -0.12666383 0.93372232 1.0709822
-0.03089362 -0.12666383 0.93372232 1.0709822
-0.0092680855 -0.12666383 0.93372232 1.0709822
-0.0062019909 -0.12714082 0.9372384 1.0669644
0 -0.12762141 0.94078118 1.0629464
0.022123521 -0.12958063 0.95522386 1.046875
0.031605031 -0.12958063 0.95522386 1.046875
0.054989621 -0.12525414 0.92333049 1.0830358
0.066961132 -0.1247912 0.91991782 1.0870537
0.070004813 -0.1247912 0.91991782 1.0870537
0.073319495 -0.12525414 0.92333049 1.0830358
0.082484432 -0.12525414 0.92333049 1.0830358
0.093381517 -0.12762141 0.94078118 1.0629464
0.096494235 -0.12762141 0.94078118 1.0629464
0.15000033 -0.13977304 1.0303588 0.9705357
0.15340942 -0.13977304 1.0303588 0.9705357
-0.52373242 -0.15071437 1.1387899 0.87812513
-0.37263918 -0.12739801 0.96261275 1.0388393
-0.36945423 -0.12739801 0.96261275 1.0388393
-0.36626929 -0.12739801 0.96261275 1.0388393
-0.32799578 -0.13252354 1.001341 0.9986608
-0.32468268 -0.13252354 1.001341 0.9986608
-0.3097896 -0.13469113 1.0177191 0.98258936
-0.30894896 -0.13580175 1.0261109 0.97455353
-0.22197694 -0.13252354 1.001341 0.9986608
-0.18148971 -0.1319925 0.99732852 1.0026786
-0.17890678 -0.13252354 1.001341 0.9986608
-0.16104549 -0.13146572 0.99334806 1.0066965
-0.11918426 -0.12545712 0.94794744 1.0549108
-0.11604784 -0.12545712 0.94794744 1.0549108
-0.075852074 -0.12642013 0.95522386 1.046875
-0.056889053 -0.12642013 0.95522386 1.046875
-0.040312942 -0.12403981 0.9372384 1.0669644
-0.037072342 -0.12357448 0.93372232 1.0709822
-0.033982981 -0.12357448 0.93372232 1.0709822
-0.01544681 -0.12357448 0.93372232 1.0709822
-0.012357448 -0.12357448 0.93372232 1.0709822
-0.0092680855 -0.12357448 0.93372232 1.0709822
0.0031245276 -0.12498111 0.94435072 1.0589286
0.021954997 -0.12545712 0.94794744 1.0549108
0.034369804 -0.12498111 0.94435072 1.0589286
0.063917443 -0.12174751 0.91991782 1.0870537
0.066961132 -0.12174751 0.91991782 1.0870537
0.069491126 -0.12085413 0.91316754 1.0950893
0.08715608 -0.12450869 0.94078118 1.0629464
0.090268798 -0.12450869 0.94078118 1.0629464
0.093381517 -0.12450869 0.94078118 1.0629464
0.096494235 -0.12450869 0.94078118 1.0629464
0.1455749 -0.1293999 0.97773892 1.0227679
0.14880989 -0.1293999 0.97773892 1.0227679
0.15851489 -0.1293999 0.97773892 1.0227679
0.16174988 -0.1293999 0.97773892 1.0227679
-0.52373242 -0.1469465 1.1387899 0.87812513
-0.51996458 -0.1469465 1.1387899 0.87812513
-0.37823141 -0.12716401 0.98548162 1.0147322
-0.37497076 -0.12716401 0.98548162 1.0147322
-0.32932073 -0.12973242 1.005386 0.99464285
-0.32599425 -0.12973242 1.005386 0.99464285
-0.30894896 -0.1324067 1.0261109 0.97455353
-0.22197694 -0.12921046 1.001341 0.9986608
-0.21866384 -0.12921046 1.001341 0.9986608
-0.20872457 -0.12921046 1.001341 0.9986608
-0.17677321 -0.12766953 0.98939931 1.0107143
-0.15977016 -0.12716401 0.98548162 1.0147322
-0.13802049 -0.12518138 0.97011685 1.0308037
-0.12009912 -0.12325962 0.95522386 1.046875
-0.075852074 -0.12325962 0.95522386 1.046875
-0.072691567 -0.12325962 0.95522386 1.046875
-0.053523131 -0.12278835 0.9515717 1.0508929
-0.043909993 -0.12232069 0.94794744 1.0549108
-0.040465325 -0.12139598 0.94078118 1.0629464
-0.018536171 -0.12048512 0.93372232 1.0709822
-0.01544681 -0.12048512 0.93372232 1.0709822
-0.012357448 -0.12048512 0.93372232 1.0709822
0.0062254346 -0.12139598 0.94078118 1.0629464
0.025091423 -0.12232069 0.94794744 1.0549108
0.039714728 -0.11914418 0.92333049 1.0830358
0.061099581 -0.11914418 0.92333049 1.0830358
0.064154558 -0.11914418 0.92333049 1.0830358
0.066961132 -0.11870382 0.91991782 1.0870537
0.090268798 -0.12139598 0.94078118 1.0629464
0.093381517 -0.12139598 0.94078118 1.0629464
0.14880989 -0.1261649 0.97773892 1.0227679
0.16174988 -0.1261649 0.97773892 1.0227679
0.28105807 -0.11914418 0.92333049 1.0830358
0.28623682 -0.1200348 0.93023252 1.075
-0.52720124 -0.14517136 1.1546391 0.86607146
-0.52338094 -0.14517136 1.1546391 0.86607146
-0.37497076 -0.12390339 0.98548162 1.0147322
-0.32673475 -0.12292991 0.97773892 1.0227679
-0.32397649 -0.12691861 1.0094637 0.99062502
-0.31545162 -0.13172705 1.0477082 0.95446426
-0.31198514 -0.13172705 1.0477082 0.95446426
-0.24481027 -0.12743549 1.0135746 0.98660719
-0.21954715 -0.12640594 1.005386 0.99464285
-0.20458838 -0.12539288 0.99732852 1.0026786
-0.18259446 -0.12390339 0.98548162 1.0147322
-0.13481072 -0.12197159 0.97011685 1.0308037
-0.072691567 -0.12009912 0.95522386 1.046875
-0.04357804 -0.11828326 0.94078118 1.0629464
-0.021625534 -0.11739575 0.93372232 1.0709822
-0.018329874 -0.1160892 0.92333049 1.0830358
0.0062254346 -0.11828326 0.94078118 1.0629464
0.0093381517 -0.11828326 0.94078118 1.0629464
0.028444527 -0.12009912 0.95522386 1.046875
0.054989621 -0.1160892 0.92333049 1.0830358
0.057830065 -0.11566013 0.91991782 1.0870537
0.060873754 -0.11566013 0.91991782 1.0870537
0.14880989 -0.12292991 0.97773892 1.0227679
0.15204489 -0.12292991 0.97773892 1.0227679
0.28623682 -0.11695699 0.93023252 1.075
0.28716803 -0.1160892 0.92333049 1.0830358
-0.52828252 -0.14267483 1.1654526 0.85803574
-0.52442646 -0.14267483 1.1654526 0.85803574
-0.32662597 -0.12458929 1.0177191 0.98258936
-0.3232587 -0.12458929 1.0177191 0.98258936
-0.31597546 -0.12990102 1.0611085 0.94241071
-0.31246462 -0.12990102 1.0611085 0.94241071
-0.23950599 -0.12307947 1.005386 0.99464285
-0.23617952 -0.12307947 1.005386 0.99464285
-0.22067784 -0.12561661 1.0261109 0.97455353
-0.20458838 -0.12209307 0.99732852 1.0026786
-0.18585508 -0.12064277 0.98548162 1.0147322
-0.16048893 -0.11876182 0.97011685 1.0308037
-0.14939678 -0.12016698 0.98159504 1.0187501
-0.14614902 -0.12016698 0.98159504 1.0187501
-0.11784317 -0.11784317 0.96261275 1.0388393
-0.07901258 -0.11693861 0.95522386 1.046875
-0.069531068 -0.11693861 0.95522386 1.046875
-0.024714896 -0.11430639 0.93372232 1.0709822
