# .PCD v0.7 - Point Cloud Data file format
VERSION 0.7
FIELDS x y z intensity
SIZE 4 4 4 4
TYPE F F F F
COUNT 1 1 1 1
WIDTH 1074
HEIGHT 1
VIEWPOINT 0 0 0 1 0 0 0
POINTS 1074
DATA ascii
-0.36468089 -0.23704258 0.91850328 1.0887277
-0.36164188 -0.23704258 0.91850328 1.0887277
-0.32662955 -0.24263909 0.94018888 1.063616
-0.32351878 -0.24263909 0.94018888 1.063616
-0.31418651 -0.24263909 0.94018888 1.063616
-0.30413699 -0.24456377 0.94764674 1.0552455
-0.30100158 -0.24456377 0.94764674 1.0552455
-0.28307894 -0.24263909 0.94018888 1.063616
-0.27908963 -0.24187768 0.93723851 1.0669643
-0.24456377 -0.24456377 0.94764674 1.0552455
-0.24142835 -0.24456377 0.94764674 1.0552455
-0.2246106 -0.23999488 0.92994297 1.0753348
-0.22153373 -0.23999488 0.92994297 1.0753348
-0.20519109 -0.23887917 0.92561978 1.0803572
-0.20212853 -0.23887917 0.92561978 1.0803572
-0.18958455 -0.2385096 0.92418772 1.0820312
-0.17123766 -0.2385096 0.92418772 1.0820312
-0.13289893 -0.23559354 0.91288847 1.0954241
-0.1208172 -0.23559354 0.91288847 1.0954241
-0.10300947 -0.23631585 0.91568726 1.0920759
-0.089789562 -0.23345286 0.90459365 1.1054688
-0.074374102 -0.2320472 0.89914697 1.1121652
-0.056186024 -0.23065841 0.89376563 1.1188616
-0.053308625 -0.23100404 0.89510489 1.1171875
-0.035699569 -0.2320472 0.89914697 1.1121652
-0.032724608 -0.2320472 0.89914697 1.1121652
-0.0089114793 -0.23169845 0.89779562 1.1138393
-0.0059320698 -0.23135072 0.89644819 1.1155134
0.014654237 -0.22860609 0.88581318 1.1289062
0.017507197 -0.22759356 0.88188976 1.1339285
0.037988342 -0.22793005 0.88319367 1.1322545
0.058443606 -0.22793005 0.88319367 1.1322545
0.069719985 -0.22658995 0.87800092 1.1389509
0.078319862 -0.22625738 0.87671232 1.140625
0.081220597 -0.22625738 0.87671232 1.140625
0.084121339 -0.22625738 0.87671232 1.140625
0.12239628 -0.22202116 0.86029762 1.1623884
-0.41553345 -0.23877668 0.93723851 1.0669643
-0.41243243 -0.23877668 0.93723851 1.0669643
-0.36164188 -0.23400357 0.91850328 1.0887277
-0.35860288 -0.23400357 0.91850328 1.0887277
-0.35439029 -0.23728742 0.93139291 1.0736607
-0.3518573 -0.23765799 0.9328475 1.0719866
-0.34822699 -0.23728742 0.93139291 1.0736607
-0.33898202 -0.23728742 0.93139291 1.0736607
-0.32192814 -0.24066474 0.94464946 1.0585938
-0.31107575 -0.23952833 0.94018888 1.063616
-0.30796501 -0.23952833 0.94018888 1.063616
-0.30100158 -0.24142835 0.94764674 1.0552455
-0.29552197 -0.23952833 0.94018888 1.063616
-0.27734894 -0.23728742 0.93139291 1.0736607
-0.24613725 -0.23990592 0.94167101 1.061942
-0.22118936 -0.23654974 0.92849737 1.077009
-0.20455715 -0.23508807 0.92276007 1.0837053
-0.20181581 -0.23545177 0.92418772 1.0820312
-0.17150299 -0.23581661 0.92561978 1.0803572
-0.14800107 -0.23257311 0.91288847 1.0954241
-0.1447594 -0.23221821 0.91149539 1.0970982
-0.14152762 -0.23186439 0.91010666 1.0987723
-0.12364865 -0.23221821 0.91149539 1.0970982
-0.086796574 -0.23045987 0.90459365 1.1054688
-0.071291834 -0.22872797 0.89779562 1.1138393
-0.056186024 -0.22770126 0.89376563 1.1188616
-0.053308625 -0.22804245 0.89510489 1.1171875
-0.041586902 -0.22872797 0.89779562 1.1138393
-0.038616408 -0.22872797 0.89779562 1.1138393
-0.01186414 -0.22838469 0.89644819 1.1155134
-0.0088981045 -0.22838469 0.89644819 1.1155134
0 -0.22736105 0.89243025 1.1205357
0.017481387 -0.22434446 0.88058966 1.1356027
0.020425063 -0.22467569 0.88188976 1.1339285
0.029265072 -0.22534107 0.88450146 1.1305804
0.038044594 -0.22534107 0.88450146 1.1305804
0.055521425 -0.22500788 0.88319367 1.1322545
0.058530144 -0.22534107 0.88450146 1.1305804
0.069822617 -0.22401424 0.87929344 1.1372768
0.078434981 -0.22368494 0.87800092 1.1389509
0.089922808 -0.22335665 0.87671232 1.140625
0.12257282 -0.21949087 0.86153847 1.1607143
0.12542336 -0.21949087 0.86153847 1.1607143
0.15373899 -0.22335665 0.87671232 1.140625
0.21051779 -0.22205301 0.87159532 1.1473215
0.2134016 -0.22205301 0.87159532 1.1473215
0.32421142 -0.17959914 0.70495671 1.4185268
-0.41684151 -0.23641758 0.94018888 1.063616
-0.41373077 -0.23641758 0.94018888 1.063616
-0.35556388 -0.23096457 0.91850328 1.0887277
-0.34553313 -0.23239397 0.92418772 1.0820312
-0.34568435 -0.23457153 0.9328475 1.0719866
-0.33642495 -0.23457153 0.9328475 1.0719866
-0.33285105 -0.23641758 0.94018888 1.063616
-0.30727243 -0.2382929 0.94764674 1.0552455
-0.29552197 -0.23641758 0.94018888 1.063616
-0.25039491 -0.23493843 0.93430656 1.0703125
-0.24730361 -0.23493843 0.93430656 1.0703125
-0.22118936 -0.23347765 0.92849737 1.077009
-0.21777879 -0.23311532 0.92705643 1.078683
-0.20181581 -0.23239397 0.92418772 1.0820312
-0.19875799 -0.23239397 0.92418772 1.0820312
-0.18958455 -0.23239397 0.92418772 1.0820312
-0.16256726 -0.23311532 0.92705643 1.078683
-0.15925278 -0.23275407 0.92561978 1.0803572
-0.1447594 -0.22920237 0.91149539 1.0970982
-0.14152762 -0.22885318 0.91010666 1.0987723
-0.12948272 -0.22885318 0.91010666 1.0987723
-0.12685806 -0.22955269 0.91288847 1.0954241
-0.12364865 -0.22920237 0.91149539 1.0970982
-0.11227065 -0.23060998 0.91709316 1.0904018
-0.10603916 -0.23025645 0.91568726 1.0920759
-0.09306442 -0.22815792 0.90734178 1.1021205
-0.086404033 -0.22643815 0.90050256 1.110491
-0.071184836 -0.22541866 0.89644819 1.1155134
-0.068116575 -0.22508086 0.89510489 1.1171875
-0.053308625 -0.22508086 0.89510489 1.1171875
-0.047456559 -0.22541866 0.89644819 1.1155134
-0.044490524 -0.22541866 0.89644819 1.1155134
-0.017822959 -0.22575746 0.89779562 1.1138393
-0.014874821 -0.22609729 0.89914697 1.1121652
-0.011899857 -0.22609729 0.89914697 1.1121652
0.0029395656 -0.22340699 0.88844818 1.125558
0.020425063 -0.22175783 0.88188976 1.1339285
0.029265072 -0.22241455 0.88450146 1.1305804
0.038044594 -0.22241455 0.88450146 1.1305804
0.055521425 -0.2220857 0.88319367 1.1322545
0.067011982 -0.2214309 0.88058966 1.1356027
0.069822617 -0.22110496 0.87929344 1.1372768
0.089922808 -0.22045591 0.87671232 1.140625
0.12560451 -0.21695325 0.86278284 1.1590402
0.12845916 -0.21695325 0.86278284 1.1590402
0.17507197 -0.22175783 0.88188976 1.1339285
0.17438541 -0.21726708 0.8640309 1.157366
0.23070443 -0.21916921 0.87159532 1.1473215
0.2808648 -0.18089598 0.7193898 1.390067
0.28388959 -0.17684926 0.70329672 1.421875
0.29087049 -0.17684926 0.70329672 1.421875
0.43897608 -0.22241455 0.88450146 1.1305804
-0.41373077 -0.23330683 0.94018888 1.063616
-0.41062 -0.23330683 0.94018888 1.063616
-0.35005781 -0.2344137 0.94464946 1.0585938
-0.32662955 -0.23330683 0.94018888 1.063616
-0.30727243 -0.23515747 0.94764674 1.0552455
-0.30413699 -0.23515747 0.94764674 1.0552455
-0.29786614 -0.23515747 0.94764674 1.0552455
-0.29473069 -0.23515747 0.94764674 1.0552455
-0.25548422 -0.2336746 0.94167101 1.061942
-0.25039491 -0.23184712 0.93430656 1.0703125
-0.22768745 -0.2307643 0.92994297 1.0753348
-0.21777879 -0.23004802 0.92705643 1.078683
-0.19814487 -0.22862868 0.92133677 1.0853795
-0.14174357 -0.22618656 0.91149539 1.0970982
-0.12685806 -0.22653225 0.91288847 1.0954241
-0.12383763 -0.22653225 0.91288847 1.0954241
-0.11227065 -0.22757564 0.91709316 1.0904018
-0.10603916 -0.22722676 0.91568726 1.0920759
-0.09306442 -0.22515585 0.90734178 1.1021205
-0.080324031 -0.22312231 0.89914697 1.1121652
-0.077349067 -0.22312231 0.89914697 1.1121652
-0.068218805 -0.22245261 0.89644819 1.1155134
-0.023907678 -0.22413447 0.90322584 1.1071428
-0.020856146 -0.22345871 0.90050256 1.110491
-0.017849784 -0.22312231 0.89914697 1.1121652
0.0029439442 -0.22079583 0.88977158 1.123884
0.0058791311 -0.22046742 0.88844818 1.125558
0.020425063 -0.21883996 0.88188976 1.1339285
0.023412058 -0.21948804 0.88450146 1.1305804
0.038044594 -0.21948804 0.88450146 1.1305804
0.0409711 -0.21948804 0.88450146 1.1305804
0.064004064 -0.21819568 0.87929344 1.1372768
0.066913344 -0.21819568 0.87929344 1.1372768
0.078434981 -0.21787494 0.87800092 1.1389509
0.089922808 -0.21755518 0.87671232 1.140625
0.092823543 -0.21755518 0.87671232 1.140625
0.12596841 -0.21471888 0.86528248 1.155692
0.13053311 -0.21755518 0.87671232 1.140625
0.22782062 -0.21628541 0.87159532 1.1473215
0.23070443 -0.21628541 0.87159532 1.1473215
0.29038566 -0.17851578 0.7193898 1.390067
-0.41062 -0.23019606 0.94018888 1.063616
-0.35005781 -0.23128819 0.94464946 1.0585938
-0.34693229 -0.23128819 0.94464946 1.0585938
-0.30174348 -0.23019606 0.94018888 1.063616
-0.29241121 -0.23019606 0.94018888 1.063616
-0.27426729 -0.22804245 0.93139291 1.0736607
-0.27118561 -0.22804245 0.93139291 1.0736607
-0.25859991 -0.23055895 0.94167101 1.061942
-0.24142835 -0.23202205 0.94764674 1.0552455
-0.22804245 -0.22804245 0.93139291 1.0736607
-0.2246106 -0.22768745 0.92994297 1.0753348
-0.21437874 -0.22662896 0.92561978 1.0803572
-0.19814487 -0.2255803 0.92133677 1.0853795
-0.19449648 -0.22488655 0.91850328 1.0887277
-0.17284217 -0.22839859 0.9328475 1.0719866
-0.16975571 -0.22839859 0.9328475 1.0719866
-0.12383763 -0.22351182 0.91288847 1.0954241
-0.1208172 -0.22351182 0.91288847 1.0954241
-0.077699952 -0.22114602 0.90322584 1.1071428
-0.074711494 -0.22114602 0.90322584 1.1071428
-0.065252766 -0.21948658 0.89644819 1.1155134
-0.053468876 -0.21981649 0.89779562 1.1138393
-0.026774678 -0.22014736 0.89914697 1.1121652
-0.023835596 -0.22047925 0.90050256 1.110491
0.005835732 -0.21592209 0.88188976 1.1339285
0.023412058 -0.21656154 0.88450146 1.1305804
0.026377626 -0.21688271 0.88581318 1.1289062
0.0409711 -0.21656154 0.88450146 1.1305804
0.058530144 -0.21656154 0.88450146 1.1305804
0.061365787 -0.21624134 0.88319367 1.1322545
0.078434981 -0.21496995 0.87800092 1.1389509
0.081339978 -0.21496995 0.87800092 1.1389509
0.087149978 -0.21496995 0.87800092 1.1389509
0.090721726 -0.21656154 0.88450146 1.1305804
0.13053311 -0.21465445 0.87671232 1.140625
0.14503679 -0.21465445 0.87671232 1.140625
0.14600883 -0.21185596 0.86528248 1.155692
0.15710089 -0.2152864 0.87929344 1.1372768
0.19549702 -0.21592209 0.88188976 1.1339285
0.23017159 -0.21560377 0.88058966 1.1356027
0.30030206 -0.1836558 0.75010467 1.3331473
-0.41062 -0.22708531 0.94018888 1.063616
-0.40750924 -0.22708531 0.94018888 1.063616
-0.34693229 -0.22816268 0.94464946 1.0585938
-0.34380677 -0.22816268 0.94464946 1.0585938
-0.33443022 -0.22816268 0.94464946 1.0585938
-0.29552197 -0.22708531 0.94018888 1.063616
-0.29241121 -0.22708531 0.94018888 1.063616
-0.2883926 -0.22637269 0.93723851 1.0669643
-0.28351223 -0.2249608 0.93139291 1.0736607
-0.26867208 -0.2228757 0.92276007 1.0837053
-0.2246106 -0.2246106 0.92994297 1.0753348
-0.21437874 -0.2235664 0.92561978 1.0803572
-0.2113162 -0.2235664 0.92561978 1.0803572
-0.19449648 -0.22184755 0.91850328 1.0887277
-0.1920481 -0.22253193 0.92133677 1.0853795
-0.17901511 -0.22531213 0.9328475 1.0719866
-0.14700256 -0.2235664 0.92561978 1.0803572
-0.13571194 -0.22015491 0.91149539 1.0970982
-0.1208172 -0.22049139 0.91288847 1.0954241
-0.11779677 -0.22049139 0.91288847 1.0954241
-0.086928211 -0.21881929 0.90596557 1.1037947
-0.075166121 -0.21948509 0.9087221 1.1004465
-0.065449215 -0.21717238 0.89914697 1.1121652
-0.056524321 -0.21717238 0.89914697 1.1121652
-0.053549357 -0.21717238 0.89914697 1.1121652
-0.047815356 -0.21815756 0.90322584 1.1071428
-0.029749641 -0.21717238 0.89914697 1.1121652
-0.026774678 -0.21717238 0.89914697 1.1121652
-0.0059231808 -0.21619609 0.89510489 1.1171875
0.0058443607 -0.21331915 0.88319367 1.1322545
0.008779522 -0.21363503 0.88450146 1.1305804
0.026416797 -0.21426958 0.88712865 1.1272322
0.038044594 -0.21363503 0.88450146 1.1305804
0.0409711 -0.21363503 0.88450146 1.1305804
0.052677132 -0.21363503 0.88450146 1.1305804
0.055521425 -0.21331915 0.88319367 1.1322545
0.058530144 -0.21363503 0.88450146 1.1305804
0.13382669 -0.21237713 0.87929344 1.1372768
0.15172903 -0.21300422 0.88188976 1.1339285
0.15602905 -0.21490793 0.88977158 1.123884
0.16584906 -0.21619609 0.89510489 1.1171875
0.17798983 -0.21300422 0.88188976 1.1339285
0.30195695 -0.18680388 0.7734139 1.2929688
-0.40750924 -0.22397454 0.94018888 1.063616
-0.40439847 -0.22397454 0.94018888 1.063616
-0.34380677 -0.22503716 0.94464946 1.0585938
-0.3313047 -0.22503716 0.94464946 1.0585938
-0.32817918 -0.22503716 0.94464946 1.0585938
-0.31667873 -0.22575118 0.94764674 1.0552455
-0.28351223 -0.22187914 0.93139291 1.0736607
-0.27999401 -0.22153373 0.92994297 1.0753348
-0.25000387 -0.22222567 0.9328475 1.0719866
-0.24112101 -0.22257324 0.93430656 1.0703125
-0.21845688 -0.22153373 0.92994297 1.0753348
-0.21164417 -0.2208461 0.92705643 1.078683
-0.19145747 -0.21880853 0.91850328 1.0887277
-0.18181764 -0.22187914 0.93139291 1.0736607
-0.15360372 -0.22118936 0.92849737 1.077009
-0.15029803 -0.2208461 0.92705643 1.078683
-0.14217749 -0.21780382 0.91428572 1.09375
-0.13571194 -0.2171391 0.91149539 1.0970982
-0.12063283 -0.2171391 0.91149539 1.0970982
-0.11725915 -0.21647844 0.9087221 1.1004465
-0.10571505 -0.21747096 0.91288847 1.0954241
-0.086928211 -0.21582177 0.90596557 1.1037947
-0.06564685 -0.21484423 0.90186208 1.108817
-0.050650638 -0.21452035 0.90050256 1.110491
-0.04774316 -0.21484423 0.90186208 1.108817
-0.035807371 -0.21484423 0.90186208 1.108817
-0.032724608 -0.21419743 0.89914697 1.1121652
-0.017822959 -0.2138755 0.89779562 1.1138393
-0.0059231808 -0.2132345 0.89510489 1.1171875
0 -0.21259734 0.89243025 1.1205357
0.0088186972 -0.21164872 0.88844818 1.125558
0.026495498 -0.21196398 0.88977158 1.123884
0.029351998 -0.21133438 0.88712865 1.1272322
0.049750622 -0.21070853 0.88450146 1.1305804
0.052677132 -0.21070853 0.88450146 1.1305804
0.07564117 -0.20946786 0.87929344 1.1372768
0.078434981 -0.20915994 0.87800092 1.1389509
0.13382669 -0.20946786 0.87929344 1.1372768
0.13673596 -0.20946786 0.87929344 1.1372768
-0.40439847 -0.22086379 0.94018888 1.063616
-0.34380677 -0.22191164 0.94464946 1.0585938
-0.34068125 -0.22191164 0.94464946 1.0585938
-0.32817918 -0.22191164 0.94464946 1.0585938
-0.31667873 -0.22261575 0.94764674 1.0552455
-0.28618971 -0.22086379 0.94018888 1.063616
-0.28219062 -0.22017071 0.93723851 1.0669643
-0.26710472 -0.2205167 0.93871135 1.0652902
-0.25039491 -0.21948195 0.93430656 1.0703125
-0.23915191 -0.2205167 0.93871135 1.0652902
-0.23604603 -0.2205167 0.93871135 1.0652902
-0.23294017 -0.2205167 0.93871135 1.0652902
-0.21066333 -0.21676952 0.92276007 1.0837053
-0.20729001 -0.21643516 0.92133677 1.0853795
-0.19116354 -0.21543828 0.91709316 1.0904018
-0.1881292 -0.21543828 0.91709316 1.0904018
-0.18595134 -0.21643516 0.92133677 1.0853795
-0.15643264 -0.21777879 0.92705643 1.078683
-0.15336534 -0.21777879 0.92705643 1.078683
-0.13550517 -0.21379705 0.91010666 1.0987723
-0.13269612 -0.21412328 0.91149539 1.0970982
-0.12044904 -0.21379705 0.91010666 1.0987723
-0.11708104 -0.21314754 0.90734178 1.1021205
-0.11407896 -0.21314754 0.90734178 1.1021205
-0.089925736 -0.21282424 0.90596557 1.1037947
-0.068838663 -0.21250196 0.90459365 1.1054688
-0.059678949 -0.21186027 0.90186208 1.108817
-0.038674533 -0.21122245 0.89914697 1.1121652
-0.035699569 -0.21122245 0.89914697 1.1121652
-0.017796209 -0.21058847 0.89644819 1.1155134
0 -0.2099583 0.89376563 1.1188616
0.0029395656 -0.20870915 0.88844818 1.125558
0.011775777 -0.20902005 0.88977158 1.123884
0.029439442 -0.20902005 0.88977158 1.123884
0.046963196 -0.20839918 0.88712865 1.1272322
0.049750622 -0.20778202 0.88450146 1.1305804
0.072839111 -0.20686308 0.88058966 1.1356027
0.075752676 -0.20686308 0.88058966 1.1356027
0.13673596 -0.20655859 0.87929344 1.1372768
0.13964523 -0.20655859 0.87929344 1.1372768
-0.40439847 -0.21775304 0.94018888 1.063616
-0.40128773 -0.21775304 0.94018888 1.063616
-0.34615549 -0.22230169 0.95982856 1.0418527
-0.34297976 -0.22230169 0.95982856 1.0418527
-0.33398923 -0.2226595 0.96137345 1.0401785
-0.28043059 -0.21571583 0.93139291 1.0736607
-0.26585138 -0.21639065 0.93430656 1.0703125
-0.26399887 -0.21741082 0.93871135 1.0652902
-0.23457153 -0.21605273 0.9328475 1.0719866
-0.23148507 -0.21605273 0.9328475 1.0719866
-0.22839859 -0.21605273 0.9328475 1.0719866
-0.2246106 -0.21538001 0.92994297 1.0753348
-0.22153373 -0.21538001 0.92994297 1.0753348
-0.20633525 -0.21240392 0.91709316 1.0904018
-0.16256726 -0.21471149 0.92705643 1.078683
-0.15949996 -0.21471149 0.92705643 1.078683
-0.15643264 -0.21471149 0.92705643 1.078683
-0.13249394 -0.21078582 0.91010666 1.0987723
-0.11407896 -0.21014546 0.90734178 1.1021205
-0.090612903 -0.2114301 0.91288847 1.0954241
-0.075395517 -0.21110746 0.91149539 1.0970982
-0.072379701 -0.21110746 0.91149539 1.0970982
-0.059859708 -0.20950897 0.90459365 1.1054688
-0.05686672 -0.20950897 0.90459365 1.1054688
-0.038732842 -0.20856145 0.90050256 1.110491
-0.026694315 -0.20762244 0.89644819 1.1155134
-0.020762244 -0.20762244 0.89644819 1.1155134
0 -0.20731132 0.89510489 1.1171875
0.0029439442 -0.2060761 0.88977158 1.123884
0.011775777 -0.2060761 0.88977158 1.123884
0.014719721 -0.2060761 0.88977158 1.123884
0.029439442 -0.2060761 0.88977158 1.123884
0.032335222 -0.2057696 0.88844818 1.125558
0.041092798 -0.20546398 0.88712865 1.1272322
0.044093482 -0.2057696 0.88844818 1.125558
0.067011982 -0.20394951 0.88058966 1.1356027
0.069822617 -0.2036493 0.87929344 1.1372768
0.072731897 -0.2036493 0.87929344 1.1372768
0.081339978 -0.20334995 0.87800092 1.1389509
0.084244981 -0.20334995 0.87800092 1.1389509
0.087022074 -0.20305151 0.87671232 1.140625
0.13673596 -0.2036493 0.87929344 1.1372768
0.13964523 -0.2036493 0.87929344 1.1372768
0.2903747 -0.17372845 0.75010467 1.3331473
-0.40192032 -0.21498063 0.94167101 1.061942
-0.34353179 -0.21947865 0.96137345 1.0401785
-0.26358464 -0.21396871 0.93723851 1.0669643
-0.2208461 -0.21164417 0.92705643 1.078683
-0.20633525 -0.20936958 0.91709316 1.0904018
-0.20330091 -0.20936958 0.91709316 1.0904018
-0.16563457 -0.21164417 0.92705643 1.078683
-0.16256726 -0.21164417 0.92705643 1.078683
-0.13269612 -0.20809163 0.91149539 1.0970982
-0.12968029 -0.20809163 0.91149539 1.0970982
-0.11442659 -0.20777459 0.91010666 1.0987723
-0.11141536 -0.20777459 0.91010666 1.0987723
-0.090751588 -0.20872866 0.91428572 1.09375
-0.078651376 -0.20872866 0.91428572 1.09375
-0.075510748 -0.20840967 0.91288847 1.0954241
-0.05686672 -0.20651598 0.90459365 1.1054688
-0.053873736 -0.20651598 0.90459365 1.1054688
-0.047671191 -0.20558201 0.90050256 1.110491
-0.038732842 -0.20558201 0.90050256 1.110491
-0.029660348 -0.20465641 0.89644819 1.1155134
-0.020731132 -0.20434973 0.89510489 1.1171875
0.0029439442 -0.20313215 0.88977158 1.123884
0.0058878884 -0.20313215 0.88977158 1.123884
0.014719721 -0.20313215 0.88977158 1.123884
0.032239322 -0.20222846 0.88581318 1.1289062
0.035222396 -0.20252879 0.88712865 1.1272322
0.038101014 -0.20222846 0.88581318 1.1289062
0.041031864 -0.20222846 0.88581318 1.1289062
0.064098418 -0.20103595 0.88058966 1.1356027
0.067011982 -0.20103595 0.88058966 1.1356027
0.086894535 -0.19985743 0.87542742 1.1422992
0.13923532 -0.20015077 0.87671232 1.140625
0.14213605 -0.20015077 0.87671232 1.140625
0.16486087 -0.20313215 0.88977158 1.123884
-0.39880466 -0.21186498 0.94167101 1.061942
-0.34353179 -0.21629779 0.96137345 1.0401785
-0.34035096 -0.21629779 0.96137345 1.0401785
-0.27520338 -0.20793144 0.92418772 1.0820312
-0.25885901 -0.20955253 0.93139291 1.0736607
-0.24961403 -0.20955253 0.93139291 1.0736607
-0.22153373 -0.20922631 0.92994297 1.0753348
-0.20330091 -0.20633525 0.91709316 1.0904018
-0.18595134 -0.20729001 0.92133677 1.0853795
-0.16870187 -0.20857687 0.92705643 1.078683
-0.13872775 -0.20507582 0.91149539 1.0970982
-0.12968029 -0.20507582 0.91149539 1.0970982
-0.12666447 -0.20507582 0.91149539 1.0970982
-0.11124586 -0.20445186 0.9087221 1.1004465
-0.10890191 -0.2057036 0.91428572 1.09375
-0.081676431 -0.2057036 0.91428572 1.09375
-0.038791317 -0.20290843 0.90186208 1.108817
-0.035699569 -0.20229757 0.89914697 1.1121652
-0.011846362 -0.20138814 0.89510489 1.1171875
0.017611198 -0.19959359 0.88712865 1.1272322
0.058271289 -0.19812238 0.88058966 1.1356027
0.061184853 -0.19812238 0.88058966 1.1356027
0.087022074 -0.19725002 0.87671232 1.140625
0.089922808 -0.19725002 0.87671232 1.140625
0.14213605 -0.19725002 0.87671232 1.140625
0.37576938 -0.18251655 0.81122679 1.2327009
-0.39817697 -0.20842075 0.94018888 1.063616
-0.3950662 -0.20842075 0.94018888 1.063616
-0.34035096 -0.21311694 0.96137345 1.0401785
-0.33717009 -0.21311694 0.96137345 1.0401785
-0.27520338 -0.20487362 0.92418772 1.0820312
-0.27214557 -0.20487362 0.92418772 1.0820312
-0.25926328 -0.20679332 0.9328475 1.0719866
-0.25577736 -0.20647086 0.93139291 1.0736607
-0.24383093 -0.20679332 0.9328475 1.0719866
-0.22672842 -0.20809321 0.93871135 1.0652902
-0.22222567 -0.20679332 0.9328475 1.0719866
-0.20057449 -0.2036135 0.91850328 1.0887277
-0.18595134 -0.20424163 0.92133677 1.0853795
-0.17483649 -0.20550956 0.92705643 1.078683
-0.17176919 -0.20550956 0.92705643 1.078683
-0.13915244 -0.20267855 0.91428572 1.09375
-0.13591935 -0.20236881 0.91288847 1.0954241
-0.12705223 -0.20267855 0.91428572 1.09375
-0.10890191 -0.20267855 0.91428572 1.09375
-0.087861016 -0.20298925 0.91568726 1.0920759
-0.084701486 -0.20267855 0.91428572 1.09375
-0.060224518 -0.20175214 0.91010666 1.0987723
-0.05686672 -0.20053002 0.90459365 1.1054688
-0.035699569 -0.1993226 0.89914697 1.1121652
-0.026614433 -0.19812967 0.89376563 1.1188616
-0.011846362 -0.19842654 0.89510489 1.1171875
-0.0088847708 -0.19842654 0.89510489 1.1171875
-0.0059231808 -0.19842654 0.89510489 1.1171875
0.0088582225 -0.19783364 0.89243025 1.1205357
0.017637394 -0.1969509 0.88844818 1.125558
0.029395657 -0.1969509 0.88844818 1.125558
0.032287199 -0.19665839 0.88712865 1.1272322
0.055439457 -0.19549702 0.88188976 1.1339285
0.058357321 -0.19549702 0.88188976 1.1339285
0.072731897 -0.19492148 0.87929344 1.1372768
0.078434981 -0.19463494 0.87800092 1.1389509
0.081459723 -0.19492148 0.87929344 1.1372768
0.09018755 -0.19492148 0.87929344 1.1372768
0.14192773 -0.19406445 0.87542742 1.1422992
0.14503679 -0.19434929 0.87671232 1.140625
0.28916216 -0.17145014 0.7734139 1.2929688
0.45567256 -0.1795886 0.8101266 1.234375
-0.39568901 -0.20563366 0.94167101 1.061942
-0.39257333 -0.20563366 0.94167101 1.061942
-0.33717009 -0.2099361 0.96137345 1.0401785
-0.27256727 -0.20212853 0.92561978 1.0803572
-0.25577736 -0.20338921 0.93139291 1.0736607
-0.22222567 -0.20370686 0.9328475 1.0719866
-0.19723222 -0.20026657 0.91709316 1.0904018
-0.19301254 -0.19904417 0.91149539 1.0970982
-0.18290295 -0.20119324 0.92133677 1.0853795
-0.15643264 -0.20244226 0.92705643 1.078683
-0.15029803 -0.20244226 0.92705643 1.078683
-0.14723073 -0.20244226 0.92705643 1.078683
-0.12705223 -0.19965351 0.91428572 1.09375
-0.12383763 -0.19934838 0.91288847 1.0954241
-0.10906885 -0.19995956 0.91568726 1.0920759
-0.10603916 -0.19995956 0.91568726 1.0920759
-0.093920395 -0.19995956 0.91568726 1.0920759
-0.090890706 -0.19995956 0.91568726 1.0920759
-0.087861016 -0.19995956 0.91568726 1.0920759
-0.063235745 -0.19874091 0.91010666 1.0987723
-0.059859708 -0.19753703 0.90459365 1.1054688
-0.050650638 -0.19664365 0.90050256 1.110491
-0.035645917 -0.19605254 0.89779562 1.1138393
-0.032577492 -0.19546497 0.89510489 1.1171875
-0.023692723 -0.19546497 0.89510489 1.1171875
0 -0.1948809 0.89243025 1.1205357
0.008871478 -0.1951725 0.89376563 1.1188616
0.023586689 -0.19459018 0.89109898 1.1222098
0.026535025 -0.19459018 0.89109898 1.1222098
0.029483361 -0.19459018 0.89109898 1.1222098
0.038157597 -0.19372319 0.88712865 1.1272322
0.049603723 -0.19257917 0.88188976 1.1339285
0.05252159 -0.19257917 0.88188976 1.1339285
0.055439457 -0.19257917 0.88188976 1.1339285
0.067011982 -0.19229525 0.88058966 1.1356027
0.069925547 -0.19229525 0.88058966 1.1356027
0.078550443 -0.19201221 0.87929344 1.1372768
0.093234062 -0.19229525 0.88058966 1.1356027
0.14632536 -0.19314948 0.88450146 1.1305804
0.14903119 -0.1928639 0.88319367 1.1322545
0.16780482 -0.19430032 0.88977158 1.123884
0.23257311 -0.19934838 0.91288847 1.0954241
0.41269866 -0.18158741 0.83155453 1.202567
0.45031169 -0.17690817 0.8101266 1.234375
0.45299214 -0.17690817 0.8101266 1.234375
0.45567256 -0.17690817 0.8101266 1.234375
-0.39568901 -0.20251799 0.94167101 1.061942
-0.39257333 -0.20251799 0.94167101 1.061942
-0.30147985 -0.20412698 0.94915253 1.0535715
-0.27034256 -0.19968484 0.92849737 1.077009
-0.2561768 -0.20062038 0.9328475 1.0719866
-0.2538833 -0.20124896 0.93577021 1.0686384
-0.24383093 -0.20062038 0.9328475 1.0719866
-0.23148507 -0.20062038 0.9328475 1.0719866
-0.19723222 -0.19723222 0.91709316 1.0904018
-0.19419788 -0.19723222 0.91709316 1.0904018
-0.18290295 -0.19814487 0.92133677 1.0853795
-0.17902617 -0.19723222 0.91709316 1.0904018
-0.17680618 -0.19814487 0.92133677 1.0853795
-0.16461265 -0.19814487 0.92133677 1.0853795
-0.16256726 -0.19937494 0.92705643 1.078683
-0.14937074 -0.19814487 0.92133677 1.0853795
-0.14632235 -0.19814487 0.92133677 1.0853795
-0.12346026 -0.19572969 0.91010666 1.0987723
-0.10603916 -0.19692987 0.91568726 1.0920759
-0.097248241 -0.19753549 0.91850328 1.0887277
-0.093920395 -0.19692987 0.91568726 1.0920759
-0.07249032 -0.19632795 0.91288847 1.0954241
-0.069469891 -0.19632795 0.91288847 1.0954241
-0.065945543 -0.19483909 0.90596557 1.1037947
-0.063235745 -0.19572969 0.91010666 1.0987723
-0.053873736 -0.19454405 0.90459365 1.1054688
-0.050650638 -0.19366421 0.90050256 1.110491
-0.032577492 -0.19250338 0.89510489 1.1171875
0 -0.19135638 0.88977158 1.123884
0.0029527408 -0.19192816 0.89243025 1.1205357
0.017769542 -0.19250338 0.89510489 1.1171875
0.026574668 -0.19192816 0.89243025 1.1205357
0.038157597 -0.19078799 0.88712865 1.1272322
0.046824116 -0.19022298 0.88450146 1.1305804
0.049603723 -0.18966129 0.88188976 1.1339285
0.067011982 -0.18938169 0.88058966 1.1356027
0.084493369 -0.18938169 0.88058966 1.1356027
0.093234062 -0.18938169 0.88058966 1.1356027
0.14610901 -0.18994172 0.88319367 1.1322545
0.14903119 -0.18994172 0.88319367 1.1322545
0.44763127 -0.17422774 0.8101266 1.234375
-0.39195547 -0.19908848 0.94018888 1.063616
-0.3888447 -0.19908848 0.94018888 1.063616
-0.30581695 -0.19971719 0.94315791 1.0602678
-0.27955878 -0.19661276 0.92849737 1.077009
-0.27648669 -0.19661276 0.92849737 1.077009
-0.26644215 -0.19600342 0.92561978 1.0803572
-0.25309032 -0.19753392 0.9328475 1.0719866
-0.24961403 -0.1972259 0.93139291 1.0736607
-0.24036907 -0.1972259 0.93139291 1.0736607
-0.23148507 -0.19753392 0.9328475 1.0719866
-0.21571583 -0.1972259 0.93139291 1.0736607
-0.19301254 -0.19301254 0.91149539 1.0970982
-0.19028708 -0.19330752 0.91288847 1.0954241
-0.17599183 -0.19419788 0.91709316 1.0904018
-0.16385446 -0.19419788 0.91709316 1.0904018
-0.16156428 -0.19509648 0.92133677 1.0853795
-0.15241912 -0.19509648 0.92133677 1.0853795
-0.14632235 -0.19509648 0.92133677 1.0853795
-0.14239544 -0.19390018 0.91568726 1.0920759
-0.12968029 -0.19301254 0.91149539 1.0970982
-0.12044904 -0.19271846 0.91010666 1.0987723
-0.099979781 -0.19390018 0.91568726 1.0920759
-0.072601274 -0.1936034 0.91428572 1.09375
-0.069576219 -0.1936034 0.91428572 1.09375
-0.047887765 -0.19155106 0.90459365 1.1054688
-0.029615903 -0.18954179 0.89510489 1.1171875
-0.017716445 -0.18897541 0.89243025 1.1205357
-0.014719721 -0.18841243 0.88977158 1.123884
-0.011775777 -0.18841243 0.88977158 1.123884
0 -0.18925819 0.89376563 1.1188616
0.014807952 -0.18954179 0.89510489 1.1171875
0.026574668 -0.18897541 0.89243025 1.1205357
0.038157597 -0.18785278 0.88712865 1.1272322
0.04396271 -0.18757422 0.88581318 1.1289062
0.046824116 -0.18729647 0.88450146 1.1305804
0.084618114 -0.18674342 0.88188976 1.1339285
0.096147627 -0.18646812 0.88058966 1.1356027
0.14925188 -0.18729647 0.88450146 1.1305804
0.1530851 -0.18841243 0.88977158 1.123884
0.17254792 -0.19039771 0.89914697 1.1121652
0.4182013 -0.17608476 0.83155453 1.202567
0.44495085 -0.17154731 0.8101266 1.234375
-0.38945767 -0.19628666 0.94167101 1.061942
-0.38634202 -0.19628666 0.94167101 1.061942
-0.33398923 -0.20039354 0.96137345 1.0401785
-0.33403403 -0.20234753 0.97074753 1.030134
-0.27605763 -0.19324033 0.92705643 1.078683
-0.26602992 -0.19264236 0.92418772 1.0820312
-0.24961403 -0.19414425 0.93139291 1.0736607
-0.17680618 -0.1920481 0.92133677 1.0853795
-0.17483649 -0.19324033 0.92705643 1.078683
-0.16461265 -0.1920481 0.92133677 1.0853795
-0.14261407 -0.19116354 0.91709316 1.0904018
-0.13310233 -0.19057834 0.91428572 1.09375
-0.13007729 -0.19057834 0.91428572 1.09375
-0.12063283 -0.1899967 0.91149539 1.0970982
-0.11797707 -0.19057834 0.91428572 1.09375
-0.078651376 -0.19057834 0.91428572 1.09375
-0.075626329 -0.19057834 0.91428572 1.09375
-0.04774316 -0.1879887 0.90186208 1.108817
-0.044894781 -0.18855807 0.90459365 1.1054688
-0.029615903 -0.1865802 0.89510489 1.1171875
-0.026574668 -0.18602267 0.89243025 1.1205357
-0.011828637 -0.18630102 0.89376563 1.1188616
-0.008871478 -0.18630102 0.89376563 1.1188616
-0.0059231808 -0.1865802 0.89510489 1.1171875
-0.0029615904 -0.1865802 0.89510489 1.1171875
0.0088847708 -0.1865802 0.89510489 1.1171875
0.011846362 -0.1865802 0.89510489 1.1171875
0.026574668 -0.18602267 0.89243025 1.1205357
0.032335222 -0.18519263 0.88844818 1.125558
0.03532733 -0.18546849 0.88977158 1.123884
0.044027995 -0.18491758 0.88712865 1.1272322
0.055276241 -0.18328437 0.87929344 1.1372768
0.069822617 -0.18328437 0.87929344 1.1372768
0.072731897 -0.18328437 0.87929344 1.1372768
0.075752676 -0.18355456 0.88058966 1.1356027
0.07866624 -0.18355456 0.88058966 1.1356027
0.081579804 -0.18355456 0.88058966 1.1356027
0.096147627 -0.18355456 0.88058966 1.1356027
0.099061191 -0.18355456 0.88058966 1.1356027
0.15331349 -0.18574518 0.89109898 1.1222098
0.17306896 -0.1879887 0.90186208 1.108817
0.41269866 -0.17333344 0.83155453 1.202567
0.41544998 -0.17333344 0.83155453 1.202567
0.41631618 -0.1714243 0.82239562 1.2159598
0.44319645 -0.17025229 0.816773 1.2243304
0.44528997 -0.17001981 0.81565768 1.2260045
-0.38945767 -0.19317101 0.94167101 1.061942
-0.38634202 -0.19317101 0.94167101 1.061942
-0.35307434 -0.1972127 0.96137345 1.0401785
-0.34671265 -0.1972127 0.96137345 1.0401785
-0.34353179 -0.1972127 0.96137345 1.0401785
-0.3308084 -0.1972127 0.96137345 1.0401785
-0.28754747 -0.193782 0.94464946 1.0585938
-0.27256727 -0.18987831 0.92561978 1.0803572
-0.2695047 -0.18987831 0.92561978 1.0803572
-0.2637884 -0.19017303 0.92705643 1.078683
-0.25000387 -0.19136098 0.9328475 1.0719866
-0.2469174 -0.19136098 0.9328475 1.0719866
-0.19845097 -0.18929169 0.92276007 1.0837053
-0.17402622 -0.18929169 0.92276007 1.0837053
-0.15949996 -0.19017303 0.92705643 1.078683
-0.14327398 -0.18899971 0.92133677 1.0853795
-0.11815792 -0.18784079 0.91568726 1.0920759
-0.10856955 -0.18698089 0.91149539 1.0970982
-0.10587686 -0.18755329 0.91428572 1.09375
-0.10013328 -0.1881292 0.91709316 1.0904018
-0.081676431 -0.18755329 0.91428572 1.09375
-0.078651376 -0.18755329 0.91428572 1.09375
-0.060224518 -0.18669601 0.91010666 1.0987723
-0.044894781 -0.18556508 0.90459365 1.1054688
-0.026574668 -0.18306993 0.89243025 1.1205357
-0.023621926 -0.18306993 0.89243025 1.1205357
-0.0088981045 -0.18389416 0.89644819 1.1155134
0.0059320698 -0.18389416 0.89644819 1.1155134
0.032383386 -0.18252455 0.88977158 1.123884
0.041092798 -0.18198238 0.88712865 1.1272322
0.046824116 -0.18144345 0.88450146 1.1305804
0.055276241 -0.1803751 0.87929344 1.1372768
0.099207446 -0.1809077 0.88188976 1.1339285
0.15469813 -0.18444778 0.89914697 1.1121652
0.15767311 -0.18444778 0.89914697 1.1121652
0.17306896 -0.18500474 0.90186208 1.108817
0.1760529 -0.18500474 0.90186208 1.108817
0.35791034 -0.17201893 0.83855873 1.1925223
0.42331362 -0.16824003 0.82013732 1.219308
0.42427954 -0.16754988 0.816773 1.2243304
0.42698196 -0.16754988 0.816773 1.2243304
0.43145424 -0.16824003 0.82013732 1.219308
0.4341678 -0.16824003 0.82013732 1.219308
0.437482 -0.16847132 0.82126486 1.217634
0.44230846 -0.16824003 0.82013732 1.219308
-0.38634202 -0.19005534 0.94167101 1.061942
-0.38322636 -0.19005534 0.94167101 1.061942
-0.34671265 -0.19403185 0.96137345 1.0401785
-0.34353179 -0.19403185 0.96137345 1.0401785
-0.30581695 -0.19035545 0.94315791 1.0602678
-0.29333463 -0.19035545 0.94315791 1.0602678
-0.27955878 -0.18739654 0.92849737 1.077009
-0.27648669 -0.18739654 0.92849737 1.077009
-0.2637884 -0.18710572 0.92705643 1.078683
-0.26194066 -0.18798093 0.93139291 1.0736607
-0.24769102 -0.1888644 0.93577021 1.0686384
-0.24536364 -0.189458 0.93871135 1.0652902
-0.23294017 -0.189458 0.93871135 1.0652902
-0.20370686 -0.18827452 0.9328475 1.0719866
-0.19845097 -0.18623859 0.92276007 1.0837053
-0.18929169 -0.18623859 0.92276007 1.0837053
-0.17375781 -0.18595134 0.92133677 1.0853795
-0.17070942 -0.18595134 0.92133677 1.0853795
-0.15241912 -0.18595134 0.92133677 1.0853795
-0.14261407 -0.18509485 0.91709316 1.0904018
-0.11815792 -0.1848111 0.91568726 1.0920759
-0.10856955 -0.18396507 0.91149539 1.0970982
-0.10013328 -0.18509485 0.91709316 1.0904018
-0.087861016 -0.1848111 0.91568726 1.0920759
-0.084701486 -0.18452823 0.91428572 1.09375
-0.060224518 -0.18368478 0.91010666 1.0987723
-0.044894781 -0.18257211 0.90459365 1.1054688
-0.041901793 -0.18257211 0.90459365 1.1054688
-0.023657274 -0.18038671 0.89376563 1.1188616
0 -0.18092813 0.89644819 1.1155134
0.0029660349 -0.18092813 0.89644819 1.1155134
0.026654312 -0.18065701 0.89510489 1.1171875
0.046963196 -0.17904718 0.88712865 1.1272322
0.064193055 -0.17798983 0.88188976 1.1339285
0.070028789 -0.17798983 0.88188976 1.1339285
0.093371712 -0.17798983 0.88188976 1.1339285
0.11362901 -0.17772743 0.88058966 1.1356027
0.15767311 -0.18147282 0.89914697 1.1121652
0.16064806 -0.18147282 0.89914697 1.1121652
0.40842468 -0.16948235 0.83973759 1.1908482
0.42331362 -0.16552648 0.82013732 1.219308
0.45299214 -0.16350603 0.8101266 1.234375
-0.38322636 -0.18693969 0.94167101 1.061942
-0.34353179 -0.19085099 0.96137345 1.0401785
-0.34035096 -0.19085099 0.96137345 1.0401785
-0.32762754 -0.19085099 0.96137345 1.0401785
-0.32444668 -0.19085099 0.96137345 1.0401785
-0.30269638 -0.18723486 0.94315791 1.0602678
-0.29287216 -0.18693969 0.94167101 1.061942
-0.26194066 -0.18489929 0.93139291 1.0736607
-0.24536364 -0.18635213 0.93871135 1.0652902
-0.21186498 -0.18693969 0.94167101 1.061942
-0.20842075 -0.18664545 0.94018888 1.063616
-0.1910626 -0.18489929 0.93139291 1.0736607
-0.18623859 -0.1831855 0.92276007 1.0837053
-0.17070942 -0.18290295 0.92133677 1.0853795
-0.16766104 -0.18290295 0.92133677 1.0853795
-0.15241912 -0.18290295 0.92133677 1.0853795
-0.14261407 -0.18206051 0.91709316 1.0904018
-0.14000964 -0.18262127 0.91991788 1.0870535
-0.12118761 -0.18178141 0.91568726 1.0920759
-0.11209854 -0.18178141 0.91568726 1.0920759
-0.090612903 -0.18122581 0.91288847 1.0954241
-0.087726541 -0.18150318 0.91428572 1.09375
-0.07249032 -0.18122581 0.91288847 1.0954241
-0.063429028 -0.18122581 0.91288847 1.0954241
-0.050880753 -0.17957912 0.90459365 1.1054688
-0.041901793 -0.17957912 0.90459365 1.1054688
-0.038791317 -0.17903686 0.90186208 1.108817
-0.023657274 -0.17742956 0.89376563 1.1188616
-0.020731132 -0.17769542 0.89510489 1.1171875
-0.017796209 -0.17796209 0.89644819 1.1155134
-0.01186414 -0.17796209 0.89644819 1.1155134
-0.0059320698 -0.17796209 0.89644819 1.1155134
-0.0029660349 -0.17796209 0.89644819 1.1155134
0.023692723 -0.17769542 0.89510489 1.1171875
0.026574668 -0.17716445 0.89243025 1.1205357
0.049898397 -0.17611198 0.88712865 1.1272322
0.061275188 -0.17507197 0.88188976 1.1339285
0.070028789 -0.17507197 0.88188976 1.1339285
0.090453848 -0.17507197 0.88188976 1.1339285
0.093371712 -0.17507197 0.88188976 1.1339285
0.10780188 -0.17481387 0.88058966 1.1356027
0.11071545 -0.17481387 0.88058966 1.1356027
0.11362901 -0.17481387 0.88058966 1.1356027
0.15626182 -0.17690016 0.89109898 1.1222098
0.15921016 -0.17690016 0.89109898 1.1222098
0.18882495 -0.17429996 0.87800092 1.1389509
0.19033116 -0.17302832 0.87159532 1.1473215
0.19898257 -0.17302832 0.87159532 1.1473215
0.25371611 -0.18122581 0.91288847 1.0954241
0.40579417 -0.1690809 0.85171098 1.1741072
0.40457413 -0.16740999 0.84329408 1.1858259
0.41704014 -0.16462111 0.82924569 1.2059152
-0.38688582 -0.18557939 0.95066315 1.0518973
-0.38374043 -0.18557939 0.95066315 1.0518973
-0.34035096 -0.18767014 0.96137345 1.0401785
-0.32392532 -0.18736857 0.95982856 1.0418527
-0.31870118 -0.18617198 0.95369881 1.0485491
-0.28975651 -0.18382402 0.94167101 1.061942
-0.26644215 -0.18069066 0.92561978 1.0803572
-0.25926328 -0.18210158 0.9328475 1.0719866
-0.2153201 -0.18411428 0.94315791 1.0602678
-0.21219951 -0.18411428 0.94315791 1.0602678
-0.18623859 -0.1801324 0.92276007 1.0837053
-0.16740283 -0.17957759 0.91991788 1.0870535
-0.1521844 -0.17957759 0.91991788 1.0870535
-0.14305334 -0.17957759 0.91991788 1.0870535
-0.14000964 -0.17957759 0.91991788 1.0870535
-0.12440801 -0.17902617 0.91709316 1.0904018
-0.12118761 -0.17875172 0.91568726 1.0920759
-0.11209854 -0.17875172 0.91568726 1.0920759
-0.10890191 -0.17847812 0.91428572 1.09375
-0.09047462 -0.17793342 0.91149539 1.0970982
-0.072269425 -0.17766233 0.91010666 1.0987723
-0.063235745 -0.17766233 0.91010666 1.0987723
-0.060224518 -0.17766233 0.91010666 1.0987723
-0.057039481 -0.17712259 0.90734178 1.1021205
-0.050880753 -0.17658614 0.90459365 1.1054688
-0.038791317 -0.1760529 0.90186208 1.108817
-0.020824749 -0.17552289 0.89914697 1.1121652
-0.0089248922 -0.17552289 0.89914697 1.1121652
-0.0059499284 -0.17552289 0.89914697 1.1121652
0.017849784 -0.17552289 0.89914697 1.1121652
0.020762244 -0.17499606 0.89644819 1.1155134
0.023692723 -0.17473383 0.89510489 1.1171875
0.029527409 -0.17421171 0.89243025 1.1205357
0.032383386 -0.17369272 0.88977158 1.123884
0.03532733 -0.17369272 0.88977158 1.123884
0.049603723 -0.1721541 0.88188976 1.1339285
0.05252159 -0.1721541 0.88188976 1.1339285
0.069925547 -0.1719003 0.88058966 1.1356027
0.087406933 -0.1719003 0.88058966 1.1356027
0.090453848 -0.1721541 0.88188976 1.1339285
0.10780188 -0.1719003 0.88058966 1.1356027
0.11071545 -0.1719003 0.88058966 1.1356027
0.12236971 -0.1719003 0.88058966 1.1356027
0.15921016 -0.17395183 0.89109898 1.1222098
0.16215849 -0.17395183 0.89109898 1.1222098
0.17611198 -0.17317678 0.88712865 1.1272322
0.40297616 -0.16626288 0.85171098 1.1741072
-0.38011068 -0.18070836 0.94167101 1.061942
-0.37699503 -0.18070836 0.94167101 1.061942
-0.31870118 -0.18301652 0.95369881 1.0485491
-0.29957578 -0.18099371 0.94315791 1.0602678
-0.26685569 -0.1779038 0.92705643 1.078683
-0.2654362 -0.17901511 0.9328475 1.0719866
-0.26007557 -0.17957599 0.93577021 1.0686384
-0.25697944 -0.17957599 0.93577021 1.0686384
-0.2180963 -0.18070836 0.94167101 1.061942
-0.20156473 -0.17985776 0.93723851 1.0669643
-0.19505668 -0.17957599 0.93577021 1.0686384
-0.1831855 -0.17707932 0.92276007 1.0837053
-0.16740283 -0.17653389 0.91991788 1.0870535
-0.16385446 -0.17599183 0.91709316 1.0904018
-0.15475143 -0.17599183 0.91709316 1.0904018
-0.14305334 -0.17653389 0.91991788 1.0870535
-0.12763831 -0.17626244 0.91850328 1.0887277
-0.10906885 -0.17572203 0.91568726 1.0920759
-0.09047462 -0.17491761 0.91149539 1.0970982
-0.081427164 -0.17491761 0.91149539 1.0970982
-0.075280651 -0.1746511 0.91010666 1.0987723
-0.050880753 -0.17359315 0.90459365 1.1054688
-0.038791317 -0.17306896 0.90186208 1.108817
-0.035753392 -0.17280807 0.90050256 1.110491
-0.020793451 -0.1722886 0.89779562 1.1138393
-0.014852465 -0.1722886 0.89779562 1.1138393
-0.011881972 -0.1722886 0.89779562 1.1138393
0.014874821 -0.17254792 0.89914697 1.1121652
0.017849784 -0.17254792 0.89914697 1.1121652
0.035380036 -0.17100349 0.89109898 1.1222098
0.052677132 -0.16973743 0.88450146 1.1305804
0.070028789 -0.16923623 0.88188976 1.1339285
0.084618114 -0.16923623 0.88188976 1.1339285
0.087535985 -0.16923623 0.88188976 1.1339285
0.099354126 -0.16948645 0.88319367 1.1322545
0.10227631 -0.16948645 0.88319367 1.1322545
0.12236971 -0.16898674 0.88058966 1.1356027
0.1609579 -0.16973743 0.88450146 1.1305804
0.1638844 -0.16973743 0.88450146 1.1305804
0.34812072 -0.16024604 0.83504188 1.1975447
0.38619751 -0.16114716 0.83973759 1.1908482
0.39117557 -0.16205846 0.84448636 1.1841518
0.44996437 -0.15913375 0.82924569 1.2059152
0.45270807 -0.15913375 0.82924569 1.2059152
-0.3783215 -0.17675677 0.93723851 1.0669643
-0.37522051 -0.17675677 0.93723851 1.0669643
-0.37211949 -0.17675677 0.93723851 1.0669643
-0.31870118 -0.17986107 0.95369881 1.0485491
-0.31554574 -0.17986107 0.95369881 1.0485491
-0.28086853 -0.17592865 0.9328475 1.0719866
-0.26685569 -0.17483649 0.92705643 1.078683
-0.2637884 -0.17483649 0.92705643 1.078683
-0.26194066 -0.17565432 0.93139291 1.0736607
-0.2561768 -0.17592865 0.9328475 1.0719866
-0.24149874 -0.17647985 0.93577021 1.0686384
-0.23877668 -0.17675677 0.93723851 1.0669643
-0.22719292 -0.17986107 0.95369881 1.0485491
-0.22368033 -0.17957436 0.95217854 1.0502232
-0.20595835 -0.17787312 0.94315791 1.0602678
-0.19505668 -0.17647985 0.93577021 1.0686384
-0.18346892 -0.17429547 0.92418772 1.0820312
-0.17985457 -0.17375781 0.92133677 1.0853795
-0.16385446 -0.17295748 0.91709316 1.0904018
-0.16082011 -0.17295748 0.91709316 1.0904018
-0.090890706 -0.17269234 0.91568726 1.0920759
-0.054037403 -0.17111844 0.90734178 1.1021205
-0.050957918 -0.1708589 0.90596557 1.1037947
-0.035807371 -0.17008501 0.90186208 1.108817
0.0089248922 -0.16957296 0.89914697 1.1121652
0.011899857 -0.16957296 0.89914697 1.1121652
0.03532733 -0.16780482 0.88977158 1.123884
0.038328372 -0.16805516 0.89109898 1.1222098
0.052677132 -0.16681091 0.88450146 1.1305804
0.055439457 -0.16631837 0.88188976 1.1339285
0.070028789 -0.16631837 0.88188976 1.1339285
0.081821047 -0.16656427 0.88319367 1.1322545
0.096431948 -0.16656427 0.88319367 1.1322545
0.099501245 -0.16681091 0.88450146 1.1305804
0.11980939 -0.16656427 0.88319367 1.1322545
0.12273157 -0.16656427 0.88319367 1.1322545
0.1609579 -0.16681091 0.88450146 1.1305804
0.1638844 -0.16681091 0.88450146 1.1305804
0.17904718 -0.16730638 0.88712865 1.1272322
0.22687897 -0.17242803 0.91428572 1.09375
0.22990403 -0.17242803 0.91428572 1.09375
0.34681234 -0.15814643 0.83855873 1.1925223
0.34812072 -0.15748318 0.83504188 1.1975447
0.35088357 -0.15748318 0.83504188 1.1975447
0.35463798 -0.15792473 0.83738315 1.1941965
0.35640928 -0.15748318 0.83504188 1.1975447
0.35917217 -0.15748318 0.83504188 1.1975447
0.36142978 -0.15726334 0.83387619 1.1992188
0.37298647 -0.15748318 0.83504188 1.1975447
0.37680286 -0.15792473 0.83738315 1.1941965
0.38010633 -0.15814643 0.83855873 1.1925223
0.3834191 -0.15836875 0.83973759 1.1908482
0.38511467 -0.15792473 0.83738315 1.1941965
0.3906233 -0.15903948 0.84329408 1.1858259
0.39396968 -0.15926434 0.84448636 1.1841518
0.42992127 -0.15509818 0.82239562 1.2159598
0.43264228 -0.15509818 0.82239562 1.2159598
0.43898964 -0.15639006 0.82924569 1.2059152
-0.37522051 -0.17365576 0.93723851 1.0669643
-0.37211949 -0.17365576 0.93723851 1.0669643
-0.31454134 -0.17614314 0.95066315 1.0518973
-0.30893752 -0.17475253 0.94315791 1.0602678
-0.25765377 -0.17176919 0.92705643 1.078683
-0.25000387 -0.17284217 0.9328475 1.0719866
-0.23840261 -0.17338371 0.93577021 1.0686384
-0.22744328 -0.17447704 0.94167101 1.061942
-0.19317101 -0.17447704 0.94167101 1.061942
-0.18153459 -0.17230402 0.92994297 1.0753348
-0.16181386 -0.17097314 0.92276007 1.0837053
-0.13802882 -0.17176919 0.92705643 1.078683
-0.087592468 -0.16914408 0.91288847 1.0954241
-0.066045716 -0.16811636 0.90734178 1.1021205
-0.054037403 -0.16811636 0.90734178 1.1021205
-0.032823425 -0.16710106 0.90186208 1.108817
-0.020887632 -0.16710106 0.90186208 1.108817
0.0059499284 -0.16659799 0.89914697 1.1121652
0.0089248922 -0.16659799 0.89914697 1.1121652
0.020731132 -0.16584906 0.89510489 1.1171875
0.029571593 -0.16560091 0.89376563 1.1188616
0.038328372 -0.16510682 0.89109898 1.1222098
0.055439457 -0.1634005 0.88188976 1.1339285
0.058271289 -0.16315961 0.88058966 1.1356027
0.073162682 -0.1638844 0.88450146 1.1305804
0.076202027 -0.16412745 0.88581318 1.1289062
0.090856269 -0.16412745 0.88581318 1.1289062
0.093787111 -0.16412745 0.88581318 1.1289062
0.11430304 -0.16412745 0.88581318 1.1289062
0.11654258 -0.16315961 0.88058966 1.1356027
0.11980939 -0.16364209 0.88319367 1.1322545
0.12273157 -0.16364209 0.88319367 1.1322545
0.12763238 -0.16244119 0.87671232 1.140625
0.16364209 -0.16364209 0.88319367 1.1322545
0.16631837 -0.1634005 0.88188976 1.1339285
0.34646979 -0.15647022 0.84448636 1.1841518
0.34681234 -0.15537193 0.83855873 1.1925223
0.35513586 -0.15537193 0.83855873 1.1925223
0.35740858 -0.15515411 0.83738315 1.1941965
0.36142978 -0.15450433 0.83387619 1.1992188
0.36469787 -0.15472032 0.83504188 1.1975447
0.36900833 -0.15537193 0.83855873 1.1925223
0.37022361 -0.15472032 0.83504188 1.1975447
0.37298647 -0.15472032 0.83504188 1.1975447
0.43075857 -0.15364636 0.82924569 1.2059152
0.43350226 -0.15364636 0.82924569 1.2059152
-0.37211949 -0.17055477 0.93723851 1.0669643
-0.3690185 -0.17055477 0.93723851 1.0669643
-0.30893752 -0.17163196 0.94315791 1.0602678
-0.29103693 -0.17028758 0.93577021 1.0686384
-0.25078717 -0.17028758 0.93577021 1.0686384
-0.23604603 -0.17082278 0.93871135 1.0652902
-0.2153201 -0.17163196 0.94315791 1.0602678
-0.20283777 -0.17163196 0.94315791 1.0602678
-0.17845772 -0.16922715 0.92994297 1.0753348
-0.16206421 -0.16817984 0.92418772 1.0820312
-0.15876077 -0.16792004 0.92276007 1.0837053
-0.14483777 -0.16949101 0.93139291 1.0736607
-0.11548229 -0.16714542 0.91850328 1.0887277
-0.11261645 -0.16740283 0.91991788 1.0870535
-0.10316762 -0.1668888 0.91709316 1.0904018
-0.087592468 -0.16612364 0.91288847 1.0954241
-0.08405818 -0.16511428 0.90734178 1.1021205
-0.069258198 -0.16561742 0.91010666 1.0987723
-0.047887765 -0.1646142 0.90459365 1.1054688
-0.044894781 -0.1646142 0.90459365 1.1054688
-0.032873057 -0.16436529 0.90322584 1.1071428
-0.023835596 -0.16386971 0.90050256 1.110491
-0.014919737 -0.16411711 0.90186208 1.108817
0 -0.16362303 0.89914697 1.1121652
0.0029749642 -0.16362303 0.89914697 1.1121652
0.0059499284 -0.16362303 0.89914697 1.1121652
0.017849784 -0.16362303 0.89914697 1.1121652
0.026574668 -0.16240075 0.89243025 1.1205357
0.029571593 -0.16264376 0.89376563 1.1188616
0.03248015 -0.16240075 0.89243025 1.1205357
0.041276705 -0.16215849 0.89109898 1.1222098
0.058357321 -0.16048263 0.88188976 1.1339285
0.084994569 -0.1611966 0.88581318 1.1289062
0.087925419 -0.1611966 0.88581318 1.1289062
0.090856269 -0.1611966 0.88581318 1.1289062
0.16631837 -0.16048263 0.88188976 1.1339285
0.32686815 -0.15632825 0.85906041 1.1640625
0.32971048 -0.15632825 0.85906041 1.1640625
0.33255282 -0.15632825 0.85906041 1.1640625
0.33529335 -0.15367612 0.84448636 1.1841518
0.33383971 -0.15174532 0.83387619 1.1992188
0.33706924 -0.15195745 0.83504188 1.1975447
-0.3690185 -0.16745378 0.93723851 1.0669643
-0.3659175 -0.16745378 0.93723851 1.0669643
-0.30893752 -0.16851138 0.94315791 1.0602678
-0.30533481 -0.16824572 0.94167101 1.061942
-0.29103693 -0.16719143 0.93577021 1.0686384
-0.25000387 -0.16666925 0.9328475 1.0719866
-0.24730361 -0.16692993 0.93430656 1.0703125
-0.23294017 -0.16771692 0.93871135 1.0652902
-0.2153201 -0.16851138 0.94315791 1.0602678
-0.20219924 -0.16798091 0.94018888 1.063616
-0.17845772 -0.1661503 0.92994297 1.0753348
-0.17538087 -0.1661503 0.92994297 1.0753348
-0.15974787 -0.16589202 0.92849737 1.077009
-0.14791943 -0.16640936 0.93139291 1.0736607
-0.12174752 -0.16435915 0.91991788 1.0870535
-0.11870383 -0.16435915 0.91991788 1.0870535
-0.11566014 -0.16435915 0.91991788 1.0870535
-0.10316762 -0.16385446 0.91709316 1.0904018
-0.083930686 -0.16186632 0.90596557 1.1037947
-0.047887765 -0.16162121 0.90459365 1.1054688
-0.041901793 -0.16162121 0.90459365 1.1054688
-0.032873057 -0.16137682 0.90322584 1.1071428
-0.0029749642 -0.16064806 0.89914697 1.1121652
0 -0.16064806 0.89914697 1.1121652
0.017849784 -0.16064806 0.89914697 1.1121652
0.029615903 -0.15992588 0.89510489 1.1171875
0.032528751 -0.1596866 0.89376563 1.1188616
0.041400228 -0.1596866 0.89376563 1.1188616
0.044225041 -0.15921016 0.89109898 1.1222098
0.058271289 -0.15733248 0.88058966 1.1356027
0.061365787 -0.15779774 0.88319367 1.1322545
0.082063727 -0.15826575 0.88581318 1.1289062
0.084994569 -0.15826575 0.88581318 1.1289062
0.10860239 -0.15850079 0.88712865 1.1272322
0.11170349 -0.15873654 0.88844818 1.125558
0.16631837 -0.15756477 0.88188976 1.1339285
0.16898674 -0.15733248 0.88058966 1.1356027
