# .PCD v0.7 - Point Cloud Data file format
VERSION 0.7
FIELDS x y z intensity
SIZE 4 4 4 4
TYPE F F F F
COUNT 1 1 1 1
WIDTH 1066
HEIGHT 1
VIEWPOINT 0 0 0 1 0 0 0
POINTS 1066
DATA ascii
0.071295917 -0.12561661 1.0261109 0.97455353
0.12112238 -0.12112238 0.98939931 1.0107143
0.13601516 -0.10707577 0.87465829 1.1433036
-0.30704832 -0.13817175 1.1600206 0.86205369
-0.19240724 -0.13320501 1.1183224 0.89419657
-0.1672013 -0.13085319 1.0985776 0.91026795
-0.11838118 -0.1291431 1.0842206 0.9223215
-0.11120656 -0.1291431 1.0842206 0.9223215
-0.070517413 -0.12693134 1.0656518 0.93839282
-0.052439004 -0.12585361 1.0566037 0.94642866
-0.048943069 -0.12585361 1.0566037 0.94642866
-0.031330399 -0.1253216 1.0521371 0.95044643
-0.017405776 -0.1253216 1.0521371 0.95044643
-0.0068465401 -0.12323772 1.034642 0.96651793
0.0068181967 -0.12272754 1.0303588 0.9705357
0.01035591 -0.12427092 1.0433162 0.95848215
0.030555392 -0.12222157 1.0261109 0.97455353
0.050716553 -0.12171973 1.0218977 0.97857153
0.071295917 -0.12222157 1.0261109 0.97455353
0.093141221 -0.119753 1.005386 0.99464285
0.095694572 -0.11879326 0.99732852 1.0026786
0.098599285 -0.11831914 0.99334806 1.0066965
0.11879326 -0.11879326 0.99732852 1.0026786
0.12160578 -0.11831914 0.99334806 1.0066965
0.12439595 -0.1178488 0.98939931 1.0107143
0.13844787 -0.10604517 0.890302 1.1232144
-0.30704832 -0.13433364 1.1600206 0.86205369
-0.23680891 -0.12950487 1.1183224 0.89419657
-0.19980752 -0.12950487 1.1183224 0.89419657
-0.15561001 -0.1266593 1.0937499 0.91428584
-0.13273041 -0.1255558 1.0842206 0.9223215
-0.11838118 -0.1255558 1.0842206 0.9223215
-0.11072422 -0.12501122 1.079518 0.92633939
-0.084620893 -0.12340547 1.0656518 0.93839282
-0.070216767 -0.12287934 1.0611085 0.94241071
-0.052217331 -0.12184044 1.0521371 0.95044643
-0.030938039 -0.1203146 1.0389609 0.9625001
-0.017405776 -0.12184044 1.0521371 0.95044643
-0.0068465401 -0.11981445 1.034642 0.96651793
0.010227296 -0.11931844 1.0303588 0.9705357
0.040909182 -0.11931844 1.0303588 0.9705357
0.071295917 -0.11882652 1.0261109 0.97455353
0.080485567 -0.11737479 1.0135746 0.98660719
0.083161801 -0.11642653 1.005386 0.99464285
0.11879326 -0.11549345 0.99732852 1.0026786
0.12209307 -0.11549345 0.99732852 1.0026786
0.12489243 -0.11503249 0.99334806 1.0066965
0.13601516 -0.10128789 0.87465829 1.1433036
-0.30704832 -0.13049553 1.1600206 0.86205369
-0.25530961 -0.12580474 1.1183224 0.89419657
-0.25160947 -0.12580474 1.1183224 0.89419657
-0.23680891 -0.12580474 1.1183224 0.89419657
-0.19436078 -0.12468427 1.1083622 0.90223217
-0.18174054 -0.12358356 1.0985776 0.91026795
-0.17447092 -0.12358356 1.0985776 0.91026795
-0.13215472 -0.12143946 1.079518 0.92633939
-0.10977198 -0.12039508 1.0702341 0.93437505
-0.070216767 -0.1193685 1.0611085 0.94241071
-0.062926807 -0.11886174 1.0566037 0.94642866
-0.051563397 -0.11687703 1.0389609 0.9625001
-0.048125837 -0.11687703 1.0389609 0.9625001
-0.017405776 -0.11835928 1.0521371 0.95044643
-0.0068465401 -0.11639118 1.034642 0.96651793
0.01035591 -0.11736698 1.0433162 0.95848215
0.020286622 -0.11495752 1.0218977 0.97857153
0.023667725 -0.11495752 1.0218977 0.97857153
0.030555392 -0.11543148 1.0261109 0.97455353
0.040909182 -0.11590935 1.0303588 0.9705357
0.044318277 -0.11590935 1.0303588 0.9705357
0.054097656 -0.11495752 1.0218977 0.97857153
0.071295917 -0.11543148 1.0261109 0.97455353
0.10601883 -0.11264502 1.001341 0.9986608
0.12160578 -0.11174586 0.99334806 1.0066965
0.12489243 -0.11174586 0.99334806 1.0066965
0.13844787 -0.10015377 0.890302 1.1232144
0.14139356 -0.10015377 0.890302 1.1232144
-0.30704832 -0.12665744 1.1600206 0.86205369
-0.25530961 -0.12210459 1.1183224 0.89419657
-0.25160947 -0.12210459 1.1183224 0.89419657
-0.19349907 -0.12048056 1.1034483 0.90625
-0.18174054 -0.11994875 1.0985776 0.91026795
-0.1447535 -0.11942164 1.0937499 0.91428584
-0.13215472 -0.11786772 1.079518 0.92633939
-0.11331302 -0.11685405 1.0702341 0.93437505
-0.06991867 -0.11536581 1.0566037 0.94642866
-0.062926807 -0.11536581 1.0566037 0.94642866
-0.047925781 -0.11296791 1.034642 0.96651793
-0.017259851 -0.11391501 1.0433162 0.95848215
-0.01369308 -0.11296791 1.034642 0.96651793
0.01035591 -0.11391501 1.0433162 0.95848215
0.030555392 -0.11203644 1.0261109 0.97455353
0.033950437 -0.11203644 1.0261109 0.97455353
0.041079238 -0.11296791 1.034642 0.96651793
0.071295917 -0.11203644 1.0261109 0.97455353
0.083499096 -0.1102188 1.0094637 0.99062502
0.11264502 -0.10933192 1.001341 0.9986608
0.12209307 -0.10889382 0.99732852 1.0026786
0.12489243 -0.10845921 0.99334806 1.0066965
0.13994972 -0.098262571 0.8999598 1.1111608
0.14292736 -0.098262571 0.8999598 1.1111608
-0.30704832 -0.12281933 1.1600206 0.86205369
-0.19349907 -0.11682963 1.1034483 0.90625
-0.18094186 -0.11580279 1.0937499 0.91428584
-0.17732303 -0.11580279 1.0937499 0.91428584
-0.1657382 -0.11529613 1.0889645 0.91830361
-0.16142888 -0.11479387 1.0842206 0.9223215
-0.13990504 -0.11479387 1.0842206 0.9223215
-0.13215472 -0.11429597 1.079518 0.92633939
-0.11331302 -0.11331302 1.0702341 0.93437505
-0.10225025 -0.11282786 1.0656518 0.93839282
-0.047925781 -0.10954464 1.034642 0.96651793
-0.03080943 -0.10954464 1.034642 0.96651793
-0.027386161 -0.10954464 1.034642 0.96651793
-0.023962891 -0.10954464 1.034642 0.96651793
-0.0171878 -0.11000191 1.0389609 0.9625001
0.01035591 -0.11046305 1.0433162 0.95848215
0.054320697 -0.10864139 1.0261109 0.97455353
0.061363772 -0.10909115 1.0303588 0.9705357
0.071295917 -0.10864139 1.0261109 0.97455353
0.12489243 -0.10517257 0.99334806 1.0066965
0.1404576 -0.095630705 0.90322578 1.1071429
0.14344606 -0.095630705 0.90322578 1.1071429
-0.30562389 -0.11842926 1.1546391 0.86607146
-0.24420919 -0.11470432 1.1183224 0.89419657
-0.24050905 -0.11470432 1.1183224 0.89419657
-0.19436078 -0.11368272 1.1083622 0.90223217
-0.17732303 -0.11218396 1.0937499 0.91428584
-0.16142888 -0.11120656 1.0842206 0.9223215
-0.13990504 -0.11120656 1.0842206 0.9223215
-0.13158399 -0.11024604 1.0748559 0.93035728
-0.11331302 -0.10977198 1.0702341 0.93437505
-0.10930199 -0.10930199 1.0656518 0.93839282
-0.083902404 -0.10837394 1.0566037 0.94642866
-0.047925781 -0.10612137 1.034642 0.96651793
-0.040740523 -0.10524635 1.0261109 0.97455353
-0.0171878 -0.10656436 1.0389609 0.9625001
-0.01369308 -0.10612137 1.034642 0.96651793
0.010312679 -0.10656436 1.0389609 0.9625001
0.044502508 -0.10612137 1.034642 0.96651793
0.047727376 -0.10568205 1.0303588 0.9705357
0.054545574 -0.10568205 1.0303588 0.9705357
0.061363772 -0.10568205 1.0303588 0.9705357
0.064772867 -0.10568205 1.0303588 0.9705357
0.071591064 -0.10568205 1.0303588 0.9705357
0.089814745 -0.10312063 1.005386 0.99464285
0.093141221 -0.10312063 1.005386 0.99464285
0.096467689 -0.10312063 1.005386 0.99464285
0.099794164 -0.10312063 1.005386 0.99464285
0.10644711 -0.10312063 1.005386 0.99464285
0.11642653 -0.10312063 1.005386 0.99464285
0.12439595 -0.10148091 0.98939931 1.0107143
0.14344606 -0.092642248 0.90322578 1.1071429
0.14643452 -0.092642248 0.90322578 1.1071429
-0.30421263 -0.11407974 1.1493074 0.87008923
-0.24050905 -0.11100418 1.1183224 0.89419657
-0.2126967 -0.11001553 1.1083622 0.90223217
-0.19264497 -0.10904432 1.0985776 0.91026795
-0.1765472 -0.10809013 1.0889645 0.91830361
-0.13158399 -0.10668971 1.0748559 0.93035728
-0.11282786 -0.10577612 1.0656518 0.93839282
-0.10930199 -0.10577612 1.0656518 0.93839282
-0.10225025 -0.10577612 1.0656518 0.93839282
-0.083902404 -0.10487801 1.0566037 0.94642866
-0.081095025 -0.10577612 1.0656518 0.93839282
-0.062660798 -0.10443466 1.0521371 0.95044643
-0.047925781 -0.1026981 1.034642 0.96651793
-0.037500083 -0.10227295 1.0303588 0.9705357
-0.034090985 -0.10227295 1.0303588 0.9705357
-0.03080943 -0.1026981 1.034642 0.96651793
0 -0.10227295 1.0303588 0.9705357
0.0034090984 -0.10227295 1.0303588 0.9705357
0.010227296 -0.10227295 1.0303588 0.9705357
0.020454591 -0.10227295 1.0303588 0.9705357
0.034090985 -0.10227295 1.0303588 0.9705357
0.047727376 -0.10227295 1.0303588 0.9705357
0.054320697 -0.10185131 1.0261109 0.97455353
0.071295917 -0.10185131 1.0261109 0.97455353
0.10644711 -0.099794164 1.005386 0.99464285
0.1159581 -0.09939266 1.001341 0.9986608
0.12439595 -0.098207332 0.98939931 1.0107143
0.14396851 -0.089980319 0.90651548 1.1031251
-0.23731019 -0.10587686 1.1034483 0.90625
-0.19627978 -0.10540951 1.0985776 0.91026795
-0.1765472 -0.10448712 1.0889645 0.91830361
-0.15784158 -0.10403195 1.0842206 0.9223215
-0.13929822 -0.10358072 1.079518 0.92633939
-0.13101818 -0.10268992 1.0702341 0.93437505
-0.11282786 -0.10225025 1.0656518 0.93839282
-0.10930199 -0.10225025 1.0656518 0.93839282
-0.10181431 -0.10181431 1.0611085 0.94241071
-0.098303474 -0.10181431 1.0611085 0.94241071
-0.01369308 -0.099274829 1.034642 0.96651793
0 -0.098863855 1.0303588 0.9705357
0.010312679 -0.099689238 1.0389609 0.9625001
0.047727376 -0.098863855 1.0303588 0.9705357
0.057954673 -0.098863855 1.0303588 0.9705357
0.071295917 -0.098456264 1.0261109 0.97455353
0.07469096 -0.098456264 1.0261109 0.97455353
0.099794164 -0.096467689 1.005386 0.99464285
0.10644711 -0.096467689 1.005386 0.99464285
0.11549345 -0.095694572 0.99732852 1.0026786
0.12766953 -0.094933756 0.98939931 1.0107143
0.14396851 -0.086980976 0.90651548 1.1031251
0.14696786 -0.086980976 0.90651548 1.1031251
-0.23731019 -0.10222593 1.1034483 0.90625
-0.1765472 -0.10088412 1.0889645 0.91830361
-0.1729442 -0.10088412 1.0889645 0.91830361
-0.15784158 -0.10044464 1.0842206 0.9223215
-0.10930199 -0.098724373 1.0656518 0.93839282
-0.091672637 -0.098724373 1.0656518 0.93839282
-0.087398335 -0.097886138 1.0566037 0.94642866
-0.082847282 -0.09665516 1.0433162 0.95848215
-0.081095025 -0.098724373 1.0656518 0.93839282
-0.061876077 -0.096251674 1.0389609 0.9625001
-0.01369308 -0.095851563 1.034642 0.96651793
0 -0.095454752 1.0303588 0.9705357
0.010312679 -0.096251674 1.0389609 0.9625001
0.030681886 -0.095454752 1.0303588 0.9705357
0.037500083 -0.095454752 1.0303588 0.9705357
0.041079238 -0.095851563 1.034642 0.96651793
0.057954673 -0.095454752 1.0303588 0.9705357
0.071295917 -0.09506122 1.0261109 0.97455353
0.07438428 -0.094670899 1.0218977 0.97857153
0.10601883 -0.092766479 1.001341 0.9986608
0.11549345 -0.092394754 0.99732852 1.0026786
0.1286927 -0.092394754 0.99732852 1.0026786
0.14396851 -0.083981633 0.90651548 1.1031251
0.14696786 -0.083981633 0.90651548 1.1031251
-0.23731019 -0.098575003 1.1034483 0.90625
-0.1765472 -0.097281113 1.0889645 0.91830361
-0.1729442 -0.097281113 1.0889645 0.91830361
-0.15784158 -0.096857332 1.0842206 0.9223215
-0.14644171 -0.096437223 1.079518 0.92633939
-0.10930199 -0.095198505 1.0656518 0.93839282
-0.10532515 -0.094792634 1.0611085 0.94241071
-0.10138208 -0.094390206 1.0566037 0.94642866
-0.061876077 -0.092814118 1.0389609 0.9625001
-0.058438517 -0.092814118 1.0389609 0.9625001
-0.047925781 -0.092428289 1.034642 0.96651793
-0.044502508 -0.092428289 1.034642 0.96651793
-0.01369308 -0.092428289 1.034642 0.96651793
0.041079238 -0.092428289 1.034642 0.96651793
0.05771574 -0.091666177 1.0261109 0.97455353
0.070712842 -0.090916514 1.0177191 0.98258936
0.073778436 -0.090546265 1.0135746 0.98660719
0.10601883 -0.089453392 1.001341 0.9986608
0.11503249 -0.088739358 0.99334806 1.0066965
0.14859149 -0.081876941 0.91653025 1.0910715
-0.24969979 -0.094089776 1.0937499 0.91428584
-0.24608095 -0.094089776 1.0937499 0.91428584
-0.23522443 -0.094089776 1.0937499 0.91428584
-0.19264497 -0.094505079 1.0985776 0.91026795
-0.1765472 -0.093678109 1.0889645 0.91830361
-0.1729442 -0.093678109 1.0889645 0.91830361
-0.13929822 -0.092865475 1.079518 0.92633939
-0.13455921 -0.092066824 1.0702341 0.93437505
-0.048125837 -0.089376554 1.0389609 0.9625001
-0.023962891 -0.089005016 1.034642 0.96651793
-0.020539619 -0.089005016 1.034642 0.96651793
-0.01369308 -0.089005016 1.034642 0.96651793
-0.0034090984 -0.088636555 1.0303588 0.9705357
0.01026981 -0.089005016 1.034642 0.96651793
0.013580174 -0.088271134 1.0261109 0.97455353
0.04733545 -0.087908693 1.0218977 0.97857153
0.057478759 -0.087908693 1.0218977 0.97857153
0.073778436 -0.087192699 1.0135746 0.98660719
0.11457522 -0.085113019 0.98939931 1.0107143
0.15081295 -0.080023199 0.93023252 1.075
-0.30380654 -0.093767457 1.1336032 0.8821429
-0.24500428 -0.090075105 1.0889645 0.91830361
-0.23419528 -0.090075105 1.0889645 0.91830361
-0.19095922 -0.090075105 1.0889645 0.91830361
-0.17219082 -0.089682713 1.0842206 0.9223215
-0.16501619 -0.089682713 1.0842206 0.9223215
-0.16072871 -0.089293726 1.079518 0.92633939
-0.15715696 -0.089293726 1.079518 0.92633939
-0.15425427 -0.089682713 1.0842206 0.9223215
-0.12340547 -0.088146761 1.0656518 0.93839282
-0.10883599 -0.087770961 1.0611085 0.94241071
-0.077238441 -0.087770961 1.0611085 0.94241071
-0.048125837 -0.085938998 1.0389609 0.9625001
-0.027500479 -0.085938998 1.0389609 0.9625001
-0.0034232701 -0.08558175 1.034642 0.96651793
0.010227296 -0.08522746 1.0303588 0.9705357
0.013524414 -0.084527589 1.0218977 0.97857153
0.046949916 -0.083839133 1.0135746 0.98660719
0.05701061 -0.083839133 1.0135746 0.98660719
0.073778436 -0.083839133 1.0135746 0.98660719
0.10802807 -0.081839442 0.98939931 1.0107143
0.12292991 -0.080874942 0.97773892 1.0227679
0.1261649 -0.080874942 0.97773892 1.0227679
0.15081295 -0.076945387 0.93023252 1.075
0.15389077 -0.076945387 0.93023252 1.075
-0.30380654 -0.09001676 1.1336032 0.8821429
-0.24500428 -0.086472102 1.0889645 0.91830361
-0.23419528 -0.086472102 1.0889645 0.91830361
-0.19095922 -0.086472102 1.0889645 0.91830361
-0.12235767 -0.083902404 1.0566037 0.94642866
-0.10837394 -0.083902404 1.0566037 0.94642866
-0.093991198 -0.083547726 1.0521371 0.95044643
-0.07691054 -0.083902404 1.0566037 0.94642866
-0.065313637 -0.082501434 1.0389609 0.9625001
-0.051563397 -0.082501434 1.0389609 0.9625001
-0.048125837 -0.082501434 1.0389609 0.9625001
-0.010227296 -0.081818365 1.0303588 0.9705357
-0.0034090984 -0.081818365 1.0303588 0.9705357
0.013469113 -0.080814674 1.0177191 0.98258936
0.05701061 -0.080485567 1.0135746 0.98660719
0.073182389 -0.079835333 1.005386 0.99464285
0.10845921 -0.078879423 0.99334806 1.0066965
0.1261649 -0.077639945 0.97773892 1.0227679
0.15081295 -0.073867574 0.93023252 1.075
0.15389077 -0.073867574 0.93023252 1.075
-0.30380654 -0.086266063 1.1336032 0.8821429
-0.23419528 -0.082869098 1.0889645 0.91830361
-0.20897424 -0.082869098 1.0889645 0.91830361
-0.14286996 -0.082150228 1.079518 0.92633939
-0.12287934 -0.080749281 1.0611085 0.94241071
-0.065313637 -0.079063877 1.0389609 0.9625001
-0.051563397 -0.079063877 1.0389609 0.9625001
-0.047925781 -0.07873521 1.034642 0.96651793
-0.044502508 -0.07873521 1.034642 0.96651793
-0.0033950435 -0.078086004 1.0261109 0.97455353
0.013469113 -0.077447399 1.0177191 0.98258936
0.046949916 -0.077132002 1.0135746 0.98660719
0.050303482 -0.077132002 1.0135746 0.98660719
0.05701061 -0.077132002 1.0135746 0.98660719
0.073778436 -0.077132002 1.0135746 0.98660719
0.09939266 -0.076201037 1.001341 0.9986608
0.10802807 -0.075292289 0.98939931 1.0107143
0.1261649 -0.074404947 0.97773892 1.0227679
0.15081295 -0.070789754 0.93023252 1.075
0.15389077 -0.070789754 0.93023252 1.075
-0.30380654 -0.082515359 1.1336032 0.8821429
-0.23419528 -0.079266094 1.0889645 0.91830361
-0.18654004 -0.078920789 1.0842206 0.9223215
-0.1821592 -0.07857848 1.079518 0.92633939
-0.17144395 -0.07857848 1.079518 0.92633939
-0.13869663 -0.078239128 1.0748559 0.93035728
-0.080406472 -0.07691054 1.0566037 0.94642866
-0.065313637 -0.075626321 1.0389609 0.9625001
-0.051349051 -0.075311936 1.034642 0.96651793
-0.047727376 -0.075000167 1.0303588 0.9705357
-0.044318277 -0.075000167 1.0303588 0.9705357
-0.0033950435 -0.07469096 1.0261109 0.97455353
0.013469113 -0.074080124 1.0177191 0.98258936
0.050303482 -0.073778436 1.0135746 0.98660719
0.05701061 -0.073778436 1.0135746 0.98660719
0.073182389 -0.073182389 1.005386 0.99464285
0.10802807 -0.072018713 0.98939931 1.0107143
0.12766953 -0.072018713 0.98939931 1.0107143
0.15081295 -0.067711942 0.93023252 1.075
0.15389077 -0.067711942 0.93023252 1.075
-0.30380654 -0.078764662 1.1336032 0.8821429
-0.17144395 -0.075006731 1.079518 0.92633939
-0.10883599 -0.073727608 1.0611085 0.94241071
-0.080406472 -0.073414601 1.0566037 0.94642866
-0.065313637 -0.072188757 1.0389609 0.9625001
-0.047727376 -0.071591064 1.0303588 0.9705357
-0.0033950435 -0.071295917 1.0261109 0.97455353
0 -0.071295917 1.0261109 0.97455353
0.013469113 -0.070712842 1.0177191 0.98258936
0.050303482 -0.07042487 1.0135746 0.98660719
0.073778436 -0.07042487 1.0135746 0.98660719
0.085452713 -0.069019496 0.99334806 1.0066965
0.089094944 -0.069296069 0.99732852 1.0026786
0.09531264 -0.069019496 0.99334806 1.0066965
0.098599285 -0.069019496 0.99334806 1.0066965
0.10802807 -0.068745136 0.98939931 1.0107143
0.11130165 -0.068745136 0.98939931 1.0107143
0.15081295 -0.064634122 0.93023252 1.075
0.15389077 -0.064634122 0.93023252 1.075
0.15696859 -0.064634122 0.93023252 1.075
-0.30380654 -0.075013965 1.1336032 0.8821429
-0.24752429 -0.071746171 1.0842206 0.9223215
-0.19012736 -0.071746171 1.0842206 0.9223215
-0.16003458 -0.071126476 1.0748559 0.93035728
-0.15647826 -0.071126476 1.0748559 0.93035728
-0.12693134 -0.070517413 1.0656518 0.93839282
-0.11139697 -0.069623105 1.0521371 0.95044643
-0.10443466 -0.069623105 1.0521371 0.95044643
-0.065042131 -0.068465397 1.034642 0.96651793
-0.047727376 -0.068181969 1.0303588 0.9705357
-0.010185131 -0.067900874 1.0261109 0.97455353
-0.0033950435 -0.067900874 1.0261109 0.97455353
0.013469113 -0.067345567 1.0177191 0.98258936
0.037040062 -0.067345567 1.0177191 0.98258936
0.050303482 -0.067071304 1.0135746 0.98660719
0.073778436 -0.067071304 1.0135746 0.98660719
0.077132002 -0.067071304 1.0135746 0.98660719
0.092025995 -0.065732859 0.99334806 1.0066965
0.09531264 -0.065732859 0.99334806 1.0066965
0.098599285 -0.065732859 0.99334806 1.0066965
0.12716401 -0.065212309 0.98548162 1.0147322
0.13042462 -0.065212309 0.98548162 1.0147322
0.15081295 -0.061556309 0.93023252 1.075
0.15389077 -0.061556309 0.93023252 1.075
0.15696859 -0.061556309 0.93023252 1.075
-0.30380654 -0.071263269 1.1336032 0.8821429
-0.2511116 -0.068158865 1.0842206 0.9223215
-0.24752429 -0.068158865 1.0842206 0.9223215
-0.17858745 -0.067863233 1.079518 0.92633939
-0.13869663 -0.067570157 1.0748559 0.93035728
-0.11046305 -0.065587431 1.0433162 0.95848215
-0.072188757 -0.065313637 1.0389609 0.9625001
-0.065042131 -0.065042131 1.034642 0.96651793
-0.047727376 -0.064772867 1.0303588 0.9705357
-0.030555392 -0.06450583 1.0261109 0.97455353
-0.010185131 -0.06450583 1.0261109 0.97455353
-0.0033950435 -0.06450583 1.0261109 0.97455353
0.013469113 -0.063978285 1.0177191 0.98258936
0.026611777 -0.06320297 1.005386 0.99464285
0.036889218 -0.063717745 1.0135746 0.98660719
0.040242784 -0.063717745 1.0135746 0.98660719
0.04359635 -0.063717745 1.0135746 0.98660719
0.050303482 -0.063717745 1.0135746 0.98660719
0.073182389 -0.06320297 1.005386 0.99464285
0.076508857 -0.06320297 1.005386 0.99464285
0.12716401 -0.061951693 0.98548162 1.0147322
0.13042462 -0.061951693 0.98548162 1.0147322
0.15389077 -0.058478493 0.93023252 1.075
0.15696859 -0.058478493 0.93023252 1.075
-0.32631075 -0.067512572 1.1336032 0.8821429
-0.30380654 -0.067512572 1.1336032 0.8821429
-0.24752429 -0.064571552 1.0842206 0.9223215
-0.17858745 -0.064291485 1.079518 0.92633939
-0.11000191 -0.061876077 1.0389609 0.9625001
-0.065042131 -0.061618861 1.034642 0.96651793
-0.047727376 -0.061363772 1.0303588 0.9705357
-0.010185131 -0.061110783 1.0261109 0.97455353
0.013469113 -0.06061101 1.0177191 0.98258936
0.04657061 -0.059876498 1.005386 0.99464285
0.049897082 -0.059876498 1.005386 0.99464285
0.053223554 -0.059876498 1.005386 0.99464285
0.073182389 -0.059876498 1.005386 0.99464285
0.076508857 -0.059876498 1.005386 0.99464285
0.10760031 -0.058691077 0.98548162 1.0147322
0.13042462 -0.058691077 0.98548162 1.0147322
0.15389077 -0.055400677 0.93023252 1.075
0.15696859 -0.055400677 0.93023252 1.075
-0.30380654 -0.063761868 1.1336032 0.8821429
-0.24860729 -0.06125107 1.0889645 0.91830361
-0.17554192 -0.059684251 1.0611085 0.94241071
-0.12880275 -0.059179641 1.0521371 0.95044643
-0.11046305 -0.058683492 1.0433162 0.95848215
-0.092428289 -0.058195591 1.034642 0.96651793
-0.072188757 -0.058438517 1.0389609 0.9625001
-0.065042131 -0.058195591 1.034642 0.96651793
-0.047727376 -0.057954673 1.0303588 0.9705357
-0.010143311 -0.057478759 1.0218977 0.97857153
-0.0033811035 -0.057478759 1.0218977 0.97857153
0.013469113 -0.057243731 1.0177191 0.98258936
0.016836392 -0.057243731 1.0177191 0.98258936
0.023474958 -0.05701061 1.0135746 0.98660719
0.026504708 -0.056322508 1.001341 0.9986608
0.029817797 -0.056322508 1.001341 0.9986608
0.033535652 -0.05701061 1.0135746 0.98660719
0.036889218 -0.05701061 1.0135746 0.98660719
0.062696442 -0.056096815 0.99732852 1.0026786
0.065996252 -0.056096815 0.99732852 1.0026786
0.075895689 -0.056096815 0.99732852 1.0026786
0.10802807 -0.055650823 0.98939931 1.0107143
0.11130165 -0.055650823 0.98939931 1.0107143
0.13146572 -0.055872928 0.99334806 1.0066965
0.15331775 -0.052128036 0.92676872 1.0790179
0.1563841 -0.052128036 0.92676872 1.0790179
-0.30755726 -0.060011171 1.1336032 0.8821429
-0.30380654 -0.060011171 1.1336032 0.8821429
-0.24140128 -0.057648066 1.0889645 0.91830361
-0.23779827 -0.057648066 1.0889645 0.91830361
-0.17203107 -0.056173414 1.0611085 0.94241071
-0.12826055 -0.055464022 1.0477082 0.95446426
-0.11000191 -0.055000957 1.0389609 0.9625001
-0.10656436 -0.055000957 1.0389609 0.9625001
-0.047727376 -0.054545574 1.0303588 0.9705357
-0.033950437 -0.054320697 1.0261109 0.97455353
-0.027160348 -0.054320697 1.0261109 0.97455353
0.013469113 -0.053876452 1.0177191 0.98258936
0.075895689 -0.052797005 0.99732852 1.0026786
0.12064277 -0.052169848 0.98548162 1.0147322
0.15274896 -0.048879664 0.92333049 1.0830358
0.15580393 -0.048879664 0.92333049 1.0830358
-0.30755726 -0.056260474 1.1336032 0.8821429
-0.30380654 -0.056260474 1.1336032 0.8821429
-0.29630515 -0.056260474 1.1336032 0.8821429
-0.24140128 -0.054045063 1.0889645 0.91830361
-0.23779827 -0.054045063 1.0889645 0.91830361
-0.18958527 -0.052662574 1.0611085 0.94241071
-0.17203107 -0.052662574 1.0611085 0.94241071
-0.12772289 -0.051779553 1.0433162 0.95848215
-0.11000191 -0.051563397 1.0389609 0.9625001
-0.10568205 -0.051136475 1.0303588 0.9705357
-0.07188867 -0.051349051 1.034642 0.96651793
-0.020286622 -0.050716553 1.0218977 0.97857153
-0.016905518 -0.050716553 1.0218977 0.97857153
-0.013524414 -0.050716553 1.0218977 0.97857153
-0.010143311 -0.050716553 1.0218977 0.97857153
0.013414262 -0.050303482 1.0135746 0.98660719
0.059396628 -0.049497191 0.99732852 1.0026786
0.065996252 -0.049497191 0.99732852 1.0026786
0.069296069 -0.049497191 0.99732852 1.0026786
0.075895689 -0.049497191 0.99732852 1.0026786
0.092025995 -0.049299642 0.99334806 1.0066965
0.09531264 -0.049299642 0.99334806 1.0066965
0.10188593 -0.049299642 0.99334806 1.0066965
0.12160578 -0.049299642 0.99334806 1.0066965
0.12390339 -0.048909232 0.98548162 1.0147322
0.15274896 -0.045824684 0.92333049 1.0830358
0.15580393 -0.045824684 0.92333049 1.0830358
-0.30755726 -0.052509774 1.1336032 0.8821429
-0.30380654 -0.052509774 1.1336032 0.8821429
-0.29630515 -0.052509774 1.1336032 0.8821429
-0.23676236 -0.050222319 1.0842206 0.9223215
-0.19371466 -0.050222319 1.0842206 0.9223215
-0.17203107 -0.049151737 1.0611085 0.94241071
-0.13924621 -0.048736174 1.0521371 0.95044643
-0.10612137 -0.047925781 1.034642 0.96651793
-0.07873521 -0.047925781 1.034642 0.96651793
-0.064772867 -0.047727376 1.0303588 0.9705357
-0.044318277 -0.047727376 1.0303588 0.9705357
-0.040909182 -0.047727376 1.0303588 0.9705357
-0.03734548 -0.04753061 1.0261109 0.97455353
0.0033672783 -0.047141895 1.0177191 0.98258936
0.0067345565 -0.047141895 1.0177191 0.98258936
0.013414262 -0.046949916 1.0135746 0.98660719
0.026611777 -0.04657061 1.005386 0.99464285
0.039757062 -0.046383239 1.001341 0.9986608
0.052797005 -0.046197377 0.99732852 1.0026786
0.059396628 -0.046197377 0.99732852 1.0026786
0.075895689 -0.046197377 0.99732852 1.0026786
0.12160578 -0.046012998 0.99334806 1.0066965
0.12489243 -0.046012998 0.99334806 1.0066965
0.15580393 -0.042769708 0.92333049 1.0830358
-0.29630515 -0.048759077 1.1336032 0.8821429
-0.23676236 -0.046635009 1.0842206 0.9223215
-0.19371466 -0.046635009 1.0842206 0.9223215
-0.17203107 -0.045640897 1.0611085 0.94241071
-0.16780481 -0.045447137 1.0566037 0.94642866
-0.10656436 -0.044688277 1.0389609 0.9625001
-0.095454752 -0.044318277 1.0303588 0.9705357
-0.07188867 -0.044502508 1.034642 0.96651793
-0.068181969 -0.044318277 1.0303588 0.9705357
-0.047727376 -0.044318277 1.0303588 0.9705357
-0.020203669 -0.043774616 1.0177191 0.98258936
0.0033535655 -0.04359635 1.0135746 0.98660719
0.052797005 -0.042897567 0.99732852 1.0026786
0.059396628 -0.042897567 0.99732852 1.0026786
0.075895689 -0.042897567 0.99732852 1.0026786
0.12016698 -0.042220831 0.98159504 1.0187501
0.12390339 -0.042388 0.98548162 1.0147322
0.15408902 -0.039277595 0.91316754 1.0950893
0.15711038 -0.039277595 0.91316754 1.0950893
-0.30755726 -0.04500838 1.1336032 0.8821429
-0.30380654 -0.04500838 1.1336032 0.8821429
-0.29630515 -0.04500838 1.1336032 0.8821429
-0.23779827 -0.043236051 1.0889645 0.91830361
-0.18256359 -0.04213006 1.0611085 0.94241071
-0.17130074 -0.041951202 1.0566037 0.94642866
-0.13866006 -0.041598018 1.0477082 0.95446426
-0.12479405 -0.041598018 1.0477082 0.95446426
-0.12132755 -0.041598018 1.0477082 0.95446426
-0.10656436 -0.041250717 1.0389609 0.9625001
-0.095454752 -0.040909182 1.0303588 0.9705357
-0.092045657 -0.040909182 1.0303588 0.9705357
-0.089005016 -0.041079238 1.034642 0.96651793
-0.08558175 -0.041079238 1.034642 0.96651793
-0.057954673 -0.040909182 1.0303588 0.9705357
-0.04753061 -0.040740523 1.0261109 0.97455353
-0.010019891 -0.040079564 1.0094637 0.99062502
0.0067071309 -0.040242784 1.0135746 0.98660719
0.016767826 -0.040242784 1.0135746 0.98660719
0.033535652 -0.040242784 1.0135746 0.98660719
0.053009417 -0.039757062 1.001341 0.9986608
0.059635594 -0.039757062 1.001341 0.9986608
0.075592786 -0.039439712 0.99334806 1.0066965
0.12016698 -0.038973074 0.98159504 1.0187501
0.13475235 -0.039439712 0.99334806 1.0066965
0.15408902 -0.036256239 0.91316754 1.0950893
0.15711038 -0.036256239 0.91316754 1.0950893
0.16315308 -0.036256239 0.91316754 1.0950893
-0.29630515 -0.041257679 1.1336032 0.8821429
-0.25221029 -0.039633047 1.0889645 0.91830361
-0.24860729 -0.039633047 1.0889645 0.91830361
-0.23676236 -0.039460395 1.0842206 0.9223215
-0.19039701 -0.038784575 1.0656518 0.93839282
-0.17130074 -0.03845527 1.0566037 0.94642866
-0.14968967 -0.03829271 1.0521371 0.95044643
-0.14212656 -0.038131516 1.0477082 0.95446426
-0.12479405 -0.038131516 1.0477082 0.95446426
-0.12081895 -0.037971672 1.0433162 0.95848215
-0.05771574 -0.03734548 1.0261109 0.97455353
-0.013359855 -0.036739599 1.0094637 0.99062502
0.016699819 -0.036739599 1.0094637 0.99062502
0.053009417 -0.036443975 1.001341 0.9986608
0.059635594 -0.036443975 1.001341 0.9986608
0.075592786 -0.036153071 0.99334806 1.0066965
0.087689415 -0.035725318 0.98159504 1.0187501
0.11969491 -0.035584971 0.97773892 1.0227679
0.15408902 -0.033234887 0.91316754 1.0950893
0.15711038 -0.033234887 0.91316754 1.0950893
-0.30755726 -0.037506983 1.1336032 0.8821429
-0.29630515 -0.037506983 1.1336032 0.8821429
-0.2511116 -0.035873085 1.0842206 0.9223215
-0.24752429 -0.035873085 1.0842206 0.9223215
-0.23471738 -0.035563238 1.0748559 0.93035728
-0.18878041 -0.034959335 1.0566037 0.94642866
-0.18178855 -0.034959335 1.0566037 0.94642866
-0.17130074 -0.034959335 1.0566037 0.94642866
-0.14212656 -0.034665015 1.0477082 0.95446426
-0.13866006 -0.034665015 1.0477082 0.95446426
-0.13519356 -0.034665015 1.0477082 0.95446426
-0.13117486 -0.034519702 1.0433162 0.95848215
-0.12081895 -0.034519702 1.0433162 0.95848215
-0.10656436 -0.034375601 1.0389609 0.9625001
-0.064772867 -0.034090985 1.0303588 0.9705357
-0.05771574 -0.033950437 1.0261109 0.97455353
-0.03719214 -0.033811036 1.0218977 0.97857153
-0.033950437 -0.033950437 1.0261109 0.97455353
-0.010019891 -0.033399638 1.0094637 0.99062502
0 -0.033399638 1.0094637 0.99062502
0.016632361 -0.033264723 1.005386 0.99464285
0.042897567 -0.032998126 0.99732852 1.0026786
0.052377243 -0.032735776 0.98939931 1.0107143
0.062446214 -0.03286643 0.99334806 1.0066965
0.075292289 -0.032735776 0.98939931 1.0107143
0.13263489 -0.032349974 0.97773892 1.0227679
0.15408902 -0.030213533 0.91316754 1.0950893
0.15711038 -0.030213533 0.91316754 1.0950893
-0.32336509 -0.033451561 1.1233701 0.89017862
-0.30896446 -0.033910733 1.1387899 0.87812513
-0.29630515 -0.033756286 1.1336032 0.8821429
-0.24752429 -0.032285776 1.0842206 0.9223215
-0.23471738 -0.032006916 1.0748559 0.93035728
-0.18878041 -0.031463403 1.0566037 0.94642866
-0.16709545 -0.031330399 1.0521371 0.95044643
-0.11981445 -0.03080943 1.034642 0.96651793
-0.11687703 -0.030938039 1.0389609 0.9625001
-0.10568205 -0.030681886 1.0303588 0.9705357
-0.06450583 -0.030555392 1.0261109 0.97455353
-0.04733545 -0.030429931 1.0218977 0.97857153
0 -0.029938249 1.005386 0.99464285
0.016565442 -0.029817797 1.001341 0.9986608
0.042220831 -0.029229805 0.98159504 1.0187501
0.062446214 -0.029579785 0.99334806 1.0066965
0.075292289 -0.0294622 0.98939931 1.0107143
0.078565866 -0.0294622 0.98939931 1.0107143
0.09743268 -0.029229805 0.98159504 1.0187501
0.10675492 -0.029114978 0.97773892 1.0227679
0.10998992 -0.029114978 0.97773892 1.0227679
0.12292991 -0.029114978 0.97773892 1.0227679
0.13263489 -0.029114978 0.97773892 1.0227679
0.15408902 -0.027192181 0.91316754 1.0950893
0.15711038 -0.027192181 0.91316754 1.0950893
-0.29630515 -0.030005585 1.1336032 0.8821429
-0.24538635 -0.028450591 1.0748559 0.93035728
-0.2337081 -0.028328255 1.0702341 0.93437505
-0.11931844 -0.027272787 1.0303588 0.9705357
-0.10524635 -0.027160348 1.0261109 0.97455353
-0.084527589 -0.027048828 1.0218977 0.97857153
-0.081146486 -0.027048828 1.0218977 0.97857153
-0.077765383 -0.027048828 1.0218977 0.97857153
-0.07438428 -0.027048828 1.0218977 0.97857153
-0.06424097 -0.027048828 1.0218977 0.97857153
-0.047141895 -0.026938226 1.0177191 0.98258936
-0.027048828 -0.027048828 1.0218977 0.97857153
0 -0.026611777 1.005386 0.99464285
0.016499063 -0.026398502 0.99732852 1.0026786
0.062197976 -0.026188621 0.98939931 1.0107143
0.077946149 -0.025982048 0.98159504 1.0187501
0.10998992 -0.025879981 0.97773892 1.0227679
0.12292991 -0.025879981 0.97773892 1.0227679
0.15711038 -0.024170827 0.91316754 1.0950893
0.16013172 -0.024170827 0.91316754 1.0950893
-0.23270746 -0.024681093 1.0656518 0.93839282
-0.21155223 -0.024681093 1.0656518 0.93839282
-0.13519356 -0.024265509 1.0477082 0.95446426
-0.12613665 -0.023863688 1.0303588 0.9705357
-0.11543148 -0.023765305 1.0261109 0.97455353
-0.046949916 -0.023474958 1.0135746 0.98660719
-0.043774616 -0.023570947 1.0177191 0.98258936
0 -0.02319162 1.001341 0.9986608
0.016499063 -0.023098689 0.99732852 1.0026786
0.052377243 -0.022915045 0.98939931 1.0107143
0.062197976 -0.022915045 0.98939931 1.0107143
0.077946149 -0.022734294 0.98159504 1.0187501
0.12244888 -0.022556372 0.97391301 1.0267857
0.15827176 -0.021305814 0.91991782 1.0870537
0.16131544 -0.021305814 0.91991782 1.0870537
-0.23270746 -0.021155223 1.0656518 0.93839282
-0.18025807 -0.020799009 1.0477082 0.95446426
-0.12561661 -0.020370262 1.0261109 0.97455353
-0.10864139 -0.020370262 1.0261109 0.97455353
-0.060364176 -0.020121392 1.0135746 0.98660719
-0.046759494 -0.020039782 1.0094637 0.99062502
-0.043419529 -0.020039782 1.0094637 0.99062502
-0.023098689 -0.019798877 0.99732852 1.0026786
0 -0.019958833 1.005386 0.99464285
0.016499063 -0.019798877 0.99732852 1.0026786
0.042220831 -0.019486537 0.98159504 1.0187501
0.062197976 -0.019641466 0.98939931 1.0107143
0.077946149 -0.019486537 0.98159504 1.0187501
0.087003149 -0.019334033 0.97391301 1.0267857
0.097049929 -0.019409986 0.97773892 1.0227679
0.15711038 -0.018128119 0.91316754 1.0950893
0.16013172 -0.018128119 0.91316754 1.0950893
-0.24787222 -0.017705159 1.0702341 0.93437505
-0.23270746 -0.017629353 1.0656518 0.93839282
-0.18025807 -0.017332507 1.0477082 0.95446426
-0.15945907 -0.017332507 1.0477082 0.95446426
-0.15599257 -0.017332507 1.0477082 0.95446426
-0.10819531 -0.016905518 1.0218977 0.97857153
-0.060119346 -0.016699819 1.0094637 0.99062502
-0.043070152 -0.016565442 1.001341 0.9986608
0 -0.016565442 1.001341 0.9986608
0.016499063 -0.016499063 0.99732852 1.0026786
0.062197976 -0.016367888 0.98939931 1.0107143
0.078565866 -0.016367888 0.98939931 1.0107143
0.10675492 -0.016174987 0.97773892 1.0227679
0.15483798 -0.014888268 0.8999598 1.1111608
0.15781564 -0.014888268 0.8999598 1.1111608
0.31040877 -0.014781371 0.89349812 1.1191965
-0.29630515 -0.015002793 1.1336032 0.8821429
-0.24787222 -0.014164127 1.0702341 0.93437505
-0.1077529 -0.013469113 1.0177191 0.98258936
-0.060119346 -0.013359855 1.0094637 0.99062502
-0.043070152 -0.013252354 1.001341 0.9986608
0 -0.013252354 1.001341 0.9986608
0.016565442 -0.013252354 1.001341 0.9986608
0.0294622 -0.013094311 0.98939931 1.0107143
0.032477561 -0.012991024 0.98159504 1.0187501
0.055211853 -0.012991024 0.98159504 1.0187501
0.078565866 -0.013094311 0.98939931 1.0107143
0.10675492 -0.01293999 0.97773892 1.0227679
0.10998992 -0.01293999 0.97773892 1.0227679
0.11278187 -0.012889356 0.97391301 1.0267857
0.11600421 -0.012889356 0.97391301 1.0267857
0.11922655 -0.012889356 0.97391301 1.0267857
0.13586989 -0.01293999 0.97773892 1.0227679
0.15483798 -0.011910615 0.8999598 1.1111608
0.15781564 -0.011910615 0.8999598 1.1111608
-0.29630515 -0.011252095 1.1336032 0.8821429
-0.24787222 -0.010623096 1.0702341 0.93437505
-0.20975602 -0.0104878 1.0566037 0.94642866
-0.20626009 -0.0104878 1.0566037 0.94642866
-0.17332508 -0.010399505 1.0477082 0.95446426
-0.16985857 -0.010399505 1.0477082 0.95446426
-0.10353888 -0.010019891 1.0094637 0.99062502
-0.060119346 -0.010019891 1.0094637 0.99062502
-0.043070152 -0.0099392654 1.001341 0.9986608
0.016565442 -0.0099392654 1.001341 0.9986608
0.036009356 -0.0098207332 0.98939931 1.0107143
0.04583009 -0.0098207332 0.98939931 1.0107143
0.048909232 -0.0097818468 0.98548162 1.0147322
0.055211853 -0.0097432686 0.98159504 1.0187501
0.087689415 -0.0097432686 0.98159504 1.0187501
0.090579934 -0.0097049931 0.97773892 1.0227679
0.093814932 -0.0097049931 0.97773892 1.0227679
0.097049929 -0.0097049931 0.97773892 1.0227679
0.10028493 -0.0097049931 0.97773892 1.0227679
0.13263489 -0.0097049931 0.97773892 1.0227679
0.13586989 -0.0097049931 0.97773892 1.0227679
0.15317637 -0.0088370973 0.890302 1.1232144
0.15612206 -0.0088370973 0.890302 1.1232144
-0.24787222 -0.0070820637 1.0702341 0.93437505
-0.23623332 -0.0070517412 1.0656518 0.93839282
-0.18719107 -0.0069330027 1.0477082 0.95446426
-0.17259851 -0.0069039403 1.0433162 0.95848215
-0.16914654 -0.0069039403 1.0433162 0.95848215
-0.15469019 -0.0068751196 1.0389609 0.9625001
-0.12122202 -0.0067345565 1.0177191 0.98258936
-0.10396053 -0.0067071309 1.0135746 0.98660719
-0.060119346 -0.0066799275 1.0094637 0.99062502
-0.043070152 -0.0066261771 1.001341 0.9986608
-0.023098689 -0.0065996256 0.99732852 1.0026786
-0.0098994384 -0.0065996256 0.99732852 1.0026786
-0.0066261771 -0.0066261771 1.001341 0.9986608
0.016565442 -0.0066261771 1.001341 0.9986608
0.019878531 -0.0066261771 1.001341 0.9986608
0.026293142 -0.0065732854 0.99334806 1.0066965
0.032735776 -0.0065471553 0.98939931 1.0107143
0.077946149 -0.0064955121 0.98159504 1.0187501
0.13586989 -0.0064699952 0.97773892 1.0227679
0.15317637 -0.0058913985 0.890302 1.1232144
0.15612206 -0.0058913985 0.890302 1.1232144
-0.18640639 -0.0034519702 1.0433162 0.95848215
-0.16844043 -0.0034375598 1.0389609 0.9625001
-0.12122202 -0.0033672783 1.0177191 0.98258936
-0.10396053 -0.0033535655 1.0135746 0.98660719
-0.093141221 -0.0033264721 1.005386 0.99464285
-0.083161801 -0.0033264721 1.005386 0.99464285
-0.079835333 -0.0033264721 1.005386 0.99464285
-0.076819167 -0.0033399637 1.0094637 0.99062502
-0.070139237 -0.0033399637 1.0094637 0.99062502
-0.059876498 -0.0033264721 1.005386 0.99464285
-0.043070152 -0.0033130886 1.001341 0.9986608
-0.03286643 -0.0032866427 0.99334806 1.0066965
-0.0066261771 -0.0033130886 1.001341 0.9986608
0.0033130886 -0.0033130886 1.001341 0.9986608
0.019798877 -0.0032998128 0.99732852 1.0026786
0.039282933 -0.0032735777 0.98939931 1.0107143
0.042556509 -0.0032735777 0.98939931 1.0107143
0.045648616 -0.0032606155 0.98548162 1.0147322
0.04871634 -0.003247756 0.98159504 1.0187501
0.051964097 -0.003247756 0.98159504 1.0187501
0.077946149 -0.003247756 0.98159504 1.0187501
0.12789264 -0.0031973163 0.9663502 1.0348215
0.13108997 -0.0031973163 0.9663502 1.0348215
0.13428728 -0.0031973163 0.9663502 1.0348215
0.15612206 -0.0029456993 0.890302 1.1232144
0.15906776 -0.0029456993 0.890302 1.1232144
-0.23623332 0 1.0656518 0.93839282
-0.18640639 0 1.0433162 0.95848215
-0.16844043 0 1.0389609 0.9625001
-0.12122202 0 1.0177191 0.98258936
-0.10353888 0 1.0094637 0.99062502
-0.059396628 0 0.99732852 1.0026786
-0.042897567 0 0.99732852 1.0026786
-0.03286643 0 0.99334806 1.0066965
-0.016499063 0 0.99732852 1.0026786
-0.013199251 0 0.99732852 1.0026786
0.0032998128 0 0.99732852 1.0026786
0.026188621 0 0.98939931 1.0107143
0.0294622 0 0.98939931 1.0107143
0.071450636 0 0.98159504 1.0187501
0.081193902 0 0.98159504 1.0187501
0.090579934 0 0.97773892 1.0227679
0.15612206 0 0.890302 1.1232144
0.15906776 0 0.890302 1.1232144
-0.23724914 0.0035410319 1.0702341 0.93437505
-0.18640639 0.0034519702 1.0433162 0.95848215
-0.16844043 0.0034375598 1.0389609 0.9625001
-0.12072835 0.0033535655 1.0135746 0.98660719
-0.10312063 0.0033264721 1.005386 0.99464285
-0.076508857 0.0033264721 1.005386 0.99464285
-0.059635594 0.0033130886 1.001341 0.9986608
-0.043070152 0.0033130886 1.001341 0.9986608
-0.029579785 0.0032866427 0.99334806 1.0066965
-0.0065996256 0.0032998128 0.99732852 1.0026786
-0.0032998128 0.0032998128 0.99732852 1.0026786
0.0032866427 0.0032866427 0.99334806 1.0066965
0.019641466 0.0032735777 0.98939931 1.0107143
0.080874942 0.0032349976 0.97773892 1.0227679
0.090579934 0.0032349976 0.97773892 1.0227679
0.10028493 0.0032349976 0.97773892 1.0227679
0.10351992 0.0032349976 0.97773892 1.0227679
0.11922655 0.0032223391 0.97391301 1.0267857
0.15501307 0.002924775 0.88397789 1.13125
0.15793785 0.002924775 0.88397789 1.13125
0.31336504 0.0029562742 0.89349812 1.1191965
-0.24787222 0.0070820637 1.0702341 0.93437505
-0.23623332 0.0070517412 1.0656518 0.93839282
-0.22469366 0.0070216767 1.0611085 0.94241071
-0.19759057 0.0069330027 1.0477082 0.95446426
-0.18562824 0.0068751196 1.0389609 0.9625001
-0.16844043 0.0068751196 1.0389609 0.9625001
-0.12072835 0.0067071309 1.0135746 0.98660719
-0.10312063 0.0066529443 1.005386 0.99464285
-0.076508857 0.0066529443 1.005386 0.99464285
-0.059635594 0.0066261771 1.001341 0.9986608
-0.03286643 0.0065732854 0.99334806 1.0066965
-0.029579785 0.0065732854 0.99334806 1.0066965
-0.026293142 0.0065732854 0.99334806 1.0066965
-0.023006499 0.0065732854 0.99334806 1.0066965
-0.019719856 0.0065732854 0.99334806 1.0066965
-0.016499063 0.0065996256 0.99732852 1.0026786
0.0098599279 0.0065732854 0.99334806 1.0066965
0.019641466 0.0065471553 0.98939931 1.0107143
0.045112744 0.0064446782 0.97391301 1.0267857
0.064699948 0.0064699952 0.97773892 1.0227679
0.071169943 0.0064699952 0.97773892 1.0227679
0.080874942 0.0064699952 0.97773892 1.0227679
0.097049929 0.0064699952 0.97773892 1.0227679
0.12739801 0.0063699009 0.96261275 1.0388393
0.13590163 0.006321006 0.95522386 1.046875
0.15501307 0.00584955 0.88397789 1.13125
0.15793785 0.00584955 0.88397789 1.13125
0.31336504 0.0059125484 0.89349812 1.1191965
0.31632134 0.0059125484 0.89349812 1.1191965
0.31927761 0.0059125484 0.89349812 1.1191965
-0.24681094 0.010577612 1.0656518 0.93839282
-0.23623332 0.010577612 1.0656518 0.93839282
-0.19250335 0.010312679 1.0389609 0.9625001
-0.18562824 0.010312679 1.0389609 0.9625001
-0.16774023 0.01026981 1.034642 0.96651793
-0.12072835 0.010060696 1.0135746 0.98660719
-0.10312063 0.0099794166 1.005386 0.99464285
-0.092394754 0.0098994384 0.99732852 1.0026786
-0.089453392 0.0099392654 1.001341 0.9986608
-0.079835333 0.0099794166 1.005386 0.99464285
-0.043070152 0.0099392654 1.001341 0.9986608
0.0097818468 0.0097818468 0.98548162 1.0147322
0.019563694 0.0097818468 0.98548162 1.0147322
0.026084924 0.0097818468 0.98548162 1.0147322
0.051557425 0.0096670166 0.97391301 1.0267857
0.054566238 0.0096293362 0.97011685 1.0308037
0.058002103 0.0096670166 0.97391301 1.0267857
0.064446777 0.0096670166 0.97391301 1.0267857
0.080558471 0.0096670166 0.97391301 1.0267857
0.096670166 0.0096670166 0.97391301 1.0267857
0.11278187 0.0096670166 0.97391301 1.0267857
0.12421306 0.0095548509 0.96261275 1.0388393
0.12739801 0.0095548509 0.96261275 1.0388393
0.15446445 0.0087432703 0.8808493 1.135268
0.15737887 0.0087432703 0.8808493 1.135268
-0.24681094 0.014103482 1.0656518 0.93839282
-0.23623332 0.014103482 1.0656518 0.93839282
-0.18562824 0.013750239 1.0389609 0.9625001
-0.16635713 0.013580174 1.0261109 0.97455353
-0.12795657 0.013469113 1.0177191 0.98258936
-0.12072835 0.013414262 1.0135746 0.98660719
-0.10312063 0.013305889 1.005386 0.99464285
-0.079835333 0.013305889 1.005386 0.99464285
-0.076508857 0.013305889 1.005386 0.99464285
-0.073182389 0.013305889 1.005386 0.99464285
-0.069855914 0.013305889 1.005386 0.99464285
-0.066261768 0.013252354 1.001341 0.9986608
-0.043070152 0.013252354 1.001341 0.9986608
0.019563694 0.013042462 0.98548162 1.0147322
0.029345538 0.013042462 0.98548162 1.0147322
0.064446777 0.012889356 0.97391301 1.0267857
0.080558471 0.012889356 0.97391301 1.0267857
0.15446445 0.011657694 0.8808493 1.135268
0.15737887 0.011657694 0.8808493 1.135268
-0.28824034 0.018015021 1.0889645 0.91830361
-0.24681094 0.017629353 1.0656518 0.93839282
-0.23623332 0.017629353 1.0656518 0.93839282
-0.18562824 0.0171878 1.0389609 0.9625001
-0.16635713 0.016975218 1.0261109 0.97455353
-0.14200635 0.016905518 1.0218977 0.97857153
-0.12122202 0.016836392 1.0177191 0.98258936
-0.099794164 0.016632361 1.005386 0.99464285
-0.092394754 0.016499063 0.99732852 1.0026786
-0.053009417 0.016565442 1.001341 0.9986608
-0.04969633 0.016565442 1.001341 0.9986608
-0.043070152 0.016565442 1.001341 0.9986608
-0.0098599279 0.016433215 0.99334806 1.0066965
0.0032606155 0.016303077 0.98548162 1.0147322
0.019563694 0.016303077 0.98548162 1.0147322
0.032606155 0.016303077 0.98548162 1.0147322
0.064446777 0.016111694 0.97391301 1.0267857
0.080244467 0.016048893 0.97011685 1.0308037
0.089178607 0.015924752 0.96261275 1.0388393
0.15737887 0.014572117 0.8808493 1.135268
0.1602933 0.014572117 0.8808493 1.135268
-0.24681094 0.021155223 1.0656518 0.93839282
-0.23522617 0.02106503 1.0611085 0.94241071
-0.18485658 0.020539619 1.034642 0.96651793
-0.16567408 0.020286622 1.0218977 0.97857153
-0.15152752 0.020203669 1.0177191 0.98258936
-0.13186304 0.020286622 1.0218977 0.97857153
-0.12795657 0.020203669 1.0177191 0.98258936
-0.10312063 0.019958833 1.005386 0.99464285
-0.043070152 0.019878531 1.001341 0.9986608
-0.0098994384 0.019798877 0.99732852 1.0026786
-0.0065996256 0.019798877 0.99732852 1.0026786
0.0032606155 0.019563694 0.98548162 1.0147322
0.019563694 0.019563694 0.98548162 1.0147322
0.058002103 0.019334033 0.97391301 1.0267857
0.064446777 0.019334033 0.97391301 1.0267857
0.079932906 0.019183898 0.9663502 1.0348215
0.12357448 0.018536171 0.93372232 1.0709822
0.15737887 0.017486541 0.8808493 1.135268
0.1602933 0.017486541 0.8808493 1.135268
-0.29645517 0.025002243 1.079518 0.92633939
-0.28573993 0.025002243 1.079518 0.92633939
-0.24471535 0.024471534 1.0566037 0.94642866
-0.23225559 0.024265509 1.0477082 0.95446426
-0.21402214 0.02416379 1.0433162 0.95848215
-0.18485658 0.023962891 1.034642 0.96651793
-0.1548948 0.023570947 1.0177191 0.98258936
-0.15152752 0.023570947 1.0177191 0.98258936
-0.14876856 0.023667725 1.0218977 0.97857153
-0.14538746 0.023667725 1.0218977 0.97857153
-0.14200635 0.023667725 1.0218977 0.97857153
-0.11737479 0.023474958 1.0135746 0.98660719
-0.10312063 0.023285305 1.005386 0.99464285
-0.059635594 0.02319162 1.001341 0.9986608
-0.053009417 0.02319162 1.001341 0.9986608
-0.04969633 0.02319162 1.001341 0.9986608
-0.032998126 0.023098689 0.99732852 1.0026786
-0.029698314 0.023098689 0.99732852 1.0026786
-0.019798877 0.023098689 0.99732852 1.0026786
-0.016499063 0.023098689 0.99732852 1.0026786
0.0032606155 0.022824308 0.98548162 1.0147322
0.019486537 0.022734294 0.98159504 1.0187501
0.035307568 0.022468451 0.97011685 1.0308037
0.063946322 0.022381214 0.9663502 1.0348215
0.079623759 0.022294652 0.96261275 1.0388393
0.12357448 0.021625534 0.93372232 1.0709822
0.15518205 0.020116191 0.8685537 1.1513393
0.1580558 0.020116191 0.8685537 1.1513393
-0.24368088 0.027849242 1.0521371 0.95044643
-0.23225559 0.027732011 1.0477082 0.95446426
-0.18485658 0.027386161 1.034642 0.96651793
-0.10312063 0.026611777 1.005386 0.99464285
-0.070139237 0.02671971 1.0094637 0.99062502
-0.066529445 0.026611777 1.005386 0.99464285
-0.059635594 0.026504708 1.001341 0.9986608
-0.043070152 0.026504708 1.001341 0.9986608
0.0032606155 0.026084924 0.98548162 1.0147322
0.019334033 0.025778713 0.97391301 1.0267857
0.022556372 0.025778713 0.97391301 1.0267857
0.063946322 0.025578531 0.9663502 1.0348215
0.079316989 0.025381437 0.95890409 1.0428572
0.11248299 0.024996221 0.94435072 1.0589286
0.11517054 0.024901738 0.94078118 1.0629464
0.15518205 0.022989934 0.8685537 1.1513393
0.1580558 0.022989934 0.8685537 1.1513393
-0.2951749 0.032006916 1.0748559 0.93035728
-0.231282 0.031067731 1.0433162 0.95848215
-0.20539621 0.03080943 1.034642 0.96651793
-0.20197293 0.03080943 1.034642 0.96651793
-0.19854966 0.03080943 1.034642 0.96651793
-0.19512638 0.03080943 1.034642 0.96651793
-0.12458929 0.030305505 1.0177191 0.98258936
-0.092766479 0.029817797 1.001341 0.9986608
-0.089453392 0.029817797 1.001341 0.9986608
-0.086140305 0.029817797 1.001341 0.9986608
-0.059635594 0.029817797 1.001341 0.9986608
-0.043070152 0.029817797 1.001341 0.9986608
0.003247756 0.029229805 0.98159504 1.0187501
0.019334033 0.029001052 0.97391301 1.0267857
0.063699007 0.028664554 0.96261275 1.0388393
0.079316989 0.028554117 0.95890409 1.0428572
0.082489669 0.028554117 0.95890409 1.0428572
0.088155739 0.028335774 0.9515717 1.0508929
0.11430639 0.027804257 0.93372232 1.0709822
0.11695699 0.027700339 0.93023252 1.075
0.12619044 0.027700339 0.93023252 1.075
0.15518205 0.025863675 0.8685537 1.1513393
0.1580558 0.025863675 0.8685537 1.1513393
-0.29264727 0.035258707 1.0656518 0.93839282
-0.1799373 0.033950437 1.0261109 0.97455353
-0.17581739 0.033811036 1.0218977 0.97857153
-0.16567408 0.033811036 1.0218977 0.97857153
-0.12408192 0.033535652 1.0135746 0.98660719
-0.059635594 0.033130884 1.001341 0.9986608
-0.043070152 0.033130884 1.001341 0.9986608
0.0032349976 0.032349974 0.97773892 1.0227679
0.019334033 0.032223389 0.97391301 1.0267857
0.066626273 0.031726796 0.95890409 1.0428572
0.081858903 0.031484194 0.9515717 1.0508929
0.099606954 0.031127173 0.94078118 1.0629464
0.11739575 0.03089362 0.93372232 1.0709822
0.1580558 0.028737416 0.8685537 1.1513393
-0.29264727 0.038784575 1.0656518 0.93839282
-0.24508987 0.037971672 1.0433162 0.95848215
-0.2406292 0.037813161 1.0389609 0.9625001
-0.17919849 0.03719214 1.0218977 0.97857153
-0.14479296 0.037040062 1.0177191 0.98258936
-0.14142568 0.037040062 1.0177191 0.98258936
-0.13805841 0.037040062 1.0177191 0.98258936
-0.10687884 0.036739599 1.0094637 0.99062502
-0.059635594 0.036443975 1.001341 0.9986608
-0.042897567 0.03629794 0.99732852 1.0026786
0.0032349976 0.035584971 0.97773892 1.0227679
0.019258672 0.035307568 0.97011685 1.0308037
0.037926037 0.034765534 0.95522386 1.046875
0.047590196 0.034899477 0.95890409 1.0428572
0.056455702 0.034500707 0.94794744 1.0549108
0.065864988 0.034500707 0.94794744 1.0549108
0.081858903 0.034632612 0.9515717 1.0508929
0.11739575 0.033982981 0.93372232 1.0709822
0.12666383 0.033982981 0.93372232 1.0709822
0.1580558 0.031611159 0.8685537 1.1513393
0.16380328 0.031611159 0.8685537 1.1513393
