# .PCD v0.7 - Point Cloud Data file format
VERSION 0.7
FIELDS x y z intensity
SIZE 4 4 4 4
TYPE F F F F
COUNT 1 1 1 1
WIDTH 1123
HEIGHT 1
VIEWPOINT 0 0 0 1 0 0 0
POINTS 1123
DATA ascii
0.77320212 -0.10947994 1.1538461 0.86666667
0.78004462 -0.10947994 1.1538461 0.86666667
0.76433218 -0.10542513 1.111111 0.90000004
-0.31052494 -0.19407809 2.1818182 0.45833331
-0.28464785 -0.19407809 2.1818182 0.45833331
-0.27170932 -0.19407809 2.1818182 0.45833331
-0.14232393 -0.1779049 2 0.5
-0.1304636 -0.1779049 2 0.5
-0.11665896 -0.17498843 1.9672132 0.50833333
-0.068866417 -0.17216605 1.9354839 0.51666665
0.097039036 -0.16173173 1.8181818 0.55000001
0.3245984 -0.18726832 2.105263 0.47500002
0.33668026 -0.11477736 1.2903225 0.77500004
0.3335717 -0.11119057 1.25 0.80000001
0.3374691 -0.11004427 1.2371134 0.80833334
0.34128699 -0.10892137 1.2244898 0.81666666
0.35940385 -0.10782115 1.2121211 0.82500005
0.36292601 -0.10674294 1.1999999 0.83333337
0.47441307 -0.10782115 1.2121211 0.82500005
0.48160115 -0.10782115 1.2121211 0.82500005
0.52282262 -0.10892137 1.2244898 0.81666666
0.53910577 -0.10782115 1.2121211 0.82500005
0.56217951 -0.10674294 1.1999999 0.83333337
0.5692957 -0.10674294 1.1999999 0.83333337
0.66278297 -0.10464994 1.1764705 0.85000002
0.77503127 -0.10568608 1.1881188 0.84166664
0.77320212 -0.10263745 1.1538461 0.86666667
-0.32346347 -0.18113954 2.1818182 0.45833331
-0.31052494 -0.18113954 2.1818182 0.45833331
-0.29758641 -0.18113954 2.1818182 0.45833331
-0.28464785 -0.18113954 2.1818182 0.45833331
-0.27170932 -0.18113954 2.1818182 0.45833331
-0.14232393 -0.16604458 2 0.5
-0.1304636 -0.16604458 2 0.5
-0.11860327 -0.16604458 2 0.5
0.097039036 -0.15094961 1.8181818 0.55000001
0.28714475 -0.17478375 2.105263 0.47500002
0.31211385 -0.17478375 2.105263 0.47500002
0.3245984 -0.17478375 2.105263 0.47500002
0.3335717 -0.10377786 1.25 0.80000001
0.34128699 -0.10165995 1.2244898 0.81666666
0.34854841 -0.10165995 1.2244898 0.81666666
0.35580984 -0.10165995 1.2244898 0.81666666
0.35940385 -0.10063308 1.2121211 0.82500005
0.47441307 -0.10063308 1.2121211 0.82500005
0.48160115 -0.10063308 1.2121211 0.82500005
0.49377689 -0.10165995 1.2244898 0.81666666
0.64882964 -0.097673275 1.1764705 0.85000002
0.76854914 -0.099626742 1.1999999 0.83333337
0.77566534 -0.099626742 1.1999999 0.83333337
-0.33640203 -0.16820101 2.1818182 0.45833331
-0.31768733 -0.16519742 2.1428571 0.46666667
-0.30497983 -0.16519742 2.1428571 0.46666667
-0.15418425 -0.15418425 2 0.5
-0.14232393 -0.15418425 2 0.5
-0.1304636 -0.15418425 2 0.5
-0.081661269 -0.15165664 1.9672132 0.50833333
0.086256921 -0.1401675 1.8181818 0.55000001
0.097039036 -0.1401675 1.8181818 0.55000001
0.31211385 -0.1622992 2.105263 0.47500002
0.31900188 -0.15950094 2.0689654 0.48333335
0.33831099 -0.15165664 1.9672132 0.50833333
0.34997687 -0.15165664 1.9672132 0.50833333
0.32843983 -0.10165995 1.3186814 0.75833333
0.35221577 -0.093444996 1.2121211 0.82500005
0.51035345 -0.093444996 1.2121211 0.82500005
0.52659851 -0.092510551 1.1999999 0.83333337
0.53910577 -0.093444996 1.2121211 0.82500005
0.59776044 -0.092510551 1.1999999 0.83333337
0.68343669 -0.091594607 1.1881188 0.84166664
0.69048244 -0.091594607 1.1881188 0.84166664
0.69752818 -0.091594607 1.1881188 0.84166664
0.76244962 -0.094398528 1.2244898 0.81666666
0.76193613 -0.093444996 1.2121211 0.82500005
0.76143295 -0.092510551 1.1999999 0.83333337
0.76854914 -0.092510551 1.1999999 0.83333337
0.77566534 -0.092510551 1.1999999 0.83333337
-0.1688589 -0.1447362 2.0338984 0.49166664
-0.15679756 -0.1447362 2.0338984 0.49166664
-0.1447362 -0.1447362 2.0338984 0.49166664
0.075474806 -0.12938538 1.8181818 0.55000001
0.086256921 -0.12938538 1.8181818 0.55000001
0.22165203 -0.13999075 1.9672132 0.50833333
0.31211385 -0.14981465 2.105263 0.47500002
0.31900188 -0.14723164 2.0689654 0.48333335
0.33831099 -0.13999075 1.9672132 0.50833333
0.34997687 -0.13999075 1.9672132 0.50833333
0.51035345 -0.086256921 1.2121211 0.82500005
0.51754153 -0.086256921 1.2121211 0.82500005
0.51948231 -0.085394353 1.1999999 0.83333337
0.52659851 -0.085394353 1.1999999 0.83333337
0.61394632 -0.083719954 1.1764705 0.85000002
0.69048244 -0.084548868 1.1881188 0.84166664
0.69752818 -0.084548868 1.1881188 0.84166664
0.70457393 -0.084548868 1.1881188 0.84166664
0.78278154 -0.085394353 1.1999999 0.83333337
0.78989774 -0.085394353 1.1999999 0.83333337
-0.7813862 -0.15348658 2.352941 0.42500001
-0.54417968 -0.15348658 2.352941 0.42500001
-0.24969108 -0.1373301 2.105263 0.47500002
-0.1688589 -0.13267486 2.0338984 0.49166664
-0.15679756 -0.13267486 2.0338984 0.49166664
-0.1447362 -0.13267486 2.0338984 0.49166664
-0.022591101 -0.12425106 1.904762 0.52499998
0.064692691 -0.11860327 1.8181818 0.55000001
0.075474806 -0.11860327 1.8181818 0.55000001
0.17498843 -0.12832485 1.9672132 0.50833333
0.18665433 -0.12832485 1.9672132 0.50833333
0.30673259 -0.13496234 2.0689654 0.48333335
0.31900188 -0.13496234 2.0689654 0.48333335
0.34997687 -0.12832485 1.9672132 0.50833333
0.50316536 -0.079068847 1.2121211 0.82500005
0.51035345 -0.079068847 1.2121211 0.82500005
0.56785804 -0.079068847 1.2121211 0.82500005
0.57504612 -0.079068847 1.2121211 0.82500005
0.70457393 -0.07750313 1.1881188 0.84166664
0.71161962 -0.07750313 1.1881188 0.84166664
0.71866536 -0.07750313 1.1881188 0.84166664
-0.79533952 -0.13953325 2.352941 0.42500001
-0.7813862 -0.13953325 2.352941 0.42500001
-0.76743293 -0.13953325 2.352941 0.42500001
-0.55813301 -0.13953325 2.352941 0.42500001
-0.54417968 -0.13953325 2.352941 0.42500001
-0.54083091 -0.14232393 2.3999999 0.41666669
-0.022591101 -0.1129555 1.904762 0.52499998
0.064692691 -0.10782115 1.8181818 0.55000001
0.075474806 -0.10782115 1.8181818 0.55000001
0.30673259 -0.12269304 2.0689654 0.48333335
0.34997687 -0.11665896 1.9672132 0.50833333
0.33309856 -0.075704217 1.2765957 0.78333336
0.34066898 -0.075704217 1.2765957 0.78333336
0.34457371 -0.074907325 1.2631578 0.79166669
0.50620365 -0.07336285 1.2371134 0.80833334
0.50829977 -0.072614253 1.2244898 0.81666666
0.51035345 -0.071880765 1.2121211 0.82500005
0.58942229 -0.071880765 1.2121211 0.82500005
0.59661037 -0.071880765 1.2121211 0.82500005
0.61394632 -0.069766626 1.1764705 0.85000002
0.71161962 -0.070457391 1.1881188 0.84166664
0.71866536 -0.070457391 1.1881188 0.84166664
-0.79533952 -0.12557992 2.352941 0.42500001
-0.7813862 -0.12557992 2.352941 0.42500001
-0.54417968 -0.12557992 2.352941 0.42500001
-0.54083091 -0.12809153 2.3999999 0.41666669
-0.34977916 -0.10855215 2.0338984 0.49166664
-0.1688589 -0.10855215 2.0338984 0.49166664
-0.15679756 -0.10855215 2.0338984 0.49166664
-0.10674295 -0.10674295 2 0.5
0.13554661 -0.10165995 1.904762 0.52499998
0.14684215 -0.10165995 1.904762 0.52499998
0.29446328 -0.11042374 2.0689654 0.48333335
0.30673259 -0.11042374 2.0689654 0.48333335
0.34997687 -0.10499306 1.9672132 0.50833333
0.38497457 -0.10499306 1.9672132 0.50833333
0.3303948 -0.076244958 1.4285713 0.70000005
0.32718143 -0.073615819 1.3793103 0.72500002
0.33309856 -0.068133794 1.2765957 0.78333336
0.34066898 -0.068133794 1.2765957 0.78333336
0.34457371 -0.067416593 1.2631578 0.79166669
0.35206443 -0.067416593 1.2631578 0.79166669
0.57223022 -0.066026561 1.2371134 0.80833334
0.5822342 -0.064692691 1.2121211 0.82500005
0.58942229 -0.064692691 1.2121211 0.82500005
0.76798558 -0.063411653 1.1881188 0.84166664
0.77503127 -0.063411653 1.1881188 0.84166664
0.78207701 -0.063411653 1.1881188 0.84166664
-0.80929285 -0.1116266 2.352941 0.42500001
-0.79533952 -0.1116266 2.352941 0.42500001
-0.54417968 -0.1116266 2.352941 0.42500001
-0.38034841 -0.098154426 2.0689654 0.48333335
-0.36184052 -0.0964908 2.0338984 0.49166664
-0.34977916 -0.0964908 2.0338984 0.49166664
-0.3377178 -0.0964908 2.0338984 0.49166664
-0.32022884 -0.094882622 2 0.5
0.11119056 -0.088952452 1.8749999 0.53333336
0.12425106 -0.090364404 1.904762 0.52499998
0.29446328 -0.098154426 2.0689654 0.48333335
0.30673259 -0.098154426 2.0689654 0.48333335
0.33831099 -0.093327165 1.9672132 0.50833333
0.34997687 -0.093327165 1.9672132 0.50833333
0.32486981 -0.061879966 1.3043478 0.76666671
0.32552812 -0.060563371 1.2765957 0.78333336
0.33309856 -0.060563371 1.2765957 0.78333336
0.34066898 -0.060563371 1.2765957 0.78333336
0.34457371 -0.059925862 1.2631578 0.79166669
0.35206443 -0.059925862 1.2631578 0.79166669
0.50373077 -0.063965812 1.3483146 0.74166667
0.5117265 -0.063965812 1.3483146 0.74166667
0.51972222 -0.063965812 1.3483146 0.74166667
0.52771795 -0.063965812 1.3483146 0.74166667
0.57223022 -0.058690276 1.2371134 0.80833334
0.57956648 -0.058690276 1.2371134 0.80833334
0.5869028 -0.058690276 1.2371134 0.80833334
0.79068846 -0.057504613 1.2121211 0.82500005
0.79787654 -0.057504613 1.2121211 0.82500005
-0.79533952 -0.097673275 2.352941 0.42500001
-0.63900542 -0.10165995 2.4489796 0.40833333
-0.55813301 -0.097673275 2.352941 0.42500001
-0.54417968 -0.097673275 2.352941 0.42500001
-0.49813372 -0.099626742 2.3999999 0.41666669
-0.34977916 -0.08442945 2.0338984 0.49166664
-0.3377178 -0.08442945 2.0338984 0.49166664
-0.32022884 -0.083022289 2 0.5
-0.3083685 -0.083022289 2 0.5
-0.10674295 -0.083022289 2 0.5
0.11119056 -0.077833392 1.8749999 0.53333336
0.29446328 -0.085885122 2.0689654 0.48333335
0.30673259 -0.085885122 2.0689654 0.48333335
0.33831099 -0.081661269 1.9672132 0.50833333
0.32486981 -0.054144971 1.3043478 0.76666671
0.33309856 -0.052992951 1.2765957 0.78333336
0.33708298 -0.05243513 1.2631578 0.79166669
0.51050973 -0.054144971 1.3043478 0.76666671
0.50721824 -0.052992951 1.2765957 0.78333336
0.5869028 -0.051353991 1.2371134 0.80833334
0.69709682 -0.050829973 1.2244898 0.81666666
0.70435822 -0.050829973 1.2244898 0.81666666
-0.55813301 -0.083719954 2.352941 0.42500001
-0.49813372 -0.085394353 2.3999999 0.41666669
-0.48390132 -0.085394353 2.3999999 0.41666669
-0.11860327 -0.071161963 2 0.5
-0.10674295 -0.071161963 2 0.5
0.066714339 -0.066714339 1.8749999 0.53333336
0.12230962 -0.066714339 1.8749999 0.53333336
0.28219399 -0.073615819 2.0689654 0.48333335
0.29446328 -0.073615819 2.0689654 0.48333335
0.30673259 -0.073615819 2.0689654 0.48333335
0.33831099 -0.069995373 1.9672132 0.50833333
0.43446249 -0.044944398 1.2631578 0.79166669
0.44195324 -0.044944398 1.2631578 0.79166669
0.51478869 -0.045422528 1.2765957 0.78333336
0.57819098 -0.044476226 1.25 0.80000001
-0.57208633 -0.069766626 2.352941 0.42500001
-0.1304636 -0.059301637 2 0.5
-0.11860327 -0.059301637 2 0.5
-0.10674295 -0.059301637 2 0.5
-0.094882622 -0.059301637 2 0.5
-0.08442945 -0.06030675 2.0338984 0.49166664
-0.0723681 -0.06030675 2.0338984 0.49166664
0.055595282 -0.055595282 1.8749999 0.53333336
0.066714339 -0.055595282 1.8749999 0.53333336
0.077833392 -0.055595282 1.8749999 0.53333336
0.26992467 -0.06134652 2.0689654 0.48333335
0.28219399 -0.06134652 2.0689654 0.48333335
0.29446328 -0.06134652 2.0689654 0.48333335
0.33208916 -0.059301637 2 0.5
0.33285436 -0.057388682 1.9354839 0.51666665
0.30976382 -0.041859977 1.4117646 0.70833337
0.3241823 -0.039534427 1.3333334 0.75
0.4131985 -0.038259119 1.2903225 0.77500004
0.42085031 -0.038259119 1.2903225 0.77500004
0.52992952 -0.037852108 1.2765957 0.78333336
0.57077825 -0.037063524 1.25 0.80000001
0.57819098 -0.037063524 1.25 0.80000001
0.58560365 -0.037063524 1.25 0.80000001
0.63671231 -0.037453663 1.2631578 0.79166669
0.69709682 -0.036307126 1.2244898 0.81666666
0.70435822 -0.036307126 1.2244898 0.81666666
-0.72479784 -0.052712567 2.2222223 0.44999999
-0.49813372 -0.05692957 2.3999999 0.41666669
-0.1304636 -0.047441311 2 0.5
-0.0723681 -0.0482454 2.0338984 0.49166664
-0.059301637 -0.047441311 2 0.5
0.055595282 -0.044476226 1.8749999 0.53333336
0.066714339 -0.044476226 1.8749999 0.53333336
0.076635957 -0.043791976 1.8461537 0.54166669
0.098531947 -0.043791976 1.8461537 0.54166669
0.2171043 -0.0482454 2.0338984 0.49166664
0.22916566 -0.0482454 2.0338984 0.49166664
0.24538608 -0.049077213 2.0689654 0.48333335
0.25765538 -0.049077213 2.0689654 0.48333335
0.32346347 -0.032346349 1.3636364 0.73333335
0.3241823 -0.03162754 1.3333334 0.75
0.32552812 -0.030281685 1.2765957 0.78333336
0.3409844 -0.029650819 1.25 0.80000001
0.34128699 -0.029045699 1.2244898 0.81666666
0.33487982 -0.027906651 1.1764705 0.85000002
0.34185648 -0.027906651 1.1764705 0.85000002
0.34544641 -0.027635712 1.1650485 0.85833341
0.4542253 -0.030281685 1.2765957 0.78333336
0.46179572 -0.030281685 1.2765957 0.78333336
0.47191617 -0.029962931 1.2631578 0.79166669
0.52235907 -0.030281685 1.2765957 0.78333336
0.68101233 -0.030607296 1.2903225 0.77500004
0.68914741 -0.029962931 1.2631578 0.79166669
0.68227446 -0.029345138 1.2371134 0.80833334
0.68961078 -0.029345138 1.2371134 0.80833334
0.69694704 -0.029345138 1.2371134 0.80833334
0.70435822 -0.029045699 1.2244898 0.81666666
0.71161968 -0.029045699 1.2244898 0.81666666
0.79315937 -0.029650819 1.25 0.80000001
-0.72479784 -0.039534427 2.2222223 0.44999999
-0.059301637 -0.035580982 2 0.5
-0.046663582 -0.034997687 1.9672132 0.50833333
-0.034997687 -0.034997687 1.9672132 0.50833333
0.088952452 -0.033357169 1.8749999 0.53333336
0.1000715 -0.033357169 1.8749999 0.53333336
0.1779049 -0.035580982 2 0.5
0.18976524 -0.035580982 2 0.5
0.20162557 -0.035580982 2 0.5
0.2171043 -0.03618405 2.0338984 0.49166664
0.22916566 -0.03618405 2.0338984 0.49166664
0.24538608 -0.03680791 2.0689654 0.48333335
0.4542253 -0.022711264 1.2765957 0.78333336
0.46179572 -0.022711264 1.2765957 0.78333336
0.46442544 -0.022472199 1.2631578 0.79166669
0.62834501 -0.022711264 1.2765957 0.78333336
0.62922156 -0.022472199 1.2631578 0.79166669
0.67336053 -0.022955472 1.2903225 0.77500004
0.68890834 -0.022711264 1.2765957 0.78333336
0.68914741 -0.022472199 1.2631578 0.79166669
0.68938154 -0.022238113 1.25 0.80000001
0.68961078 -0.022008855 1.2371134 0.80833334
0.69694704 -0.022008855 1.2371134 0.80833334
0.79401767 -0.022472199 1.2631578 0.79166669
0.79315937 -0.022238113 1.25 0.80000001
0.8005721 -0.022238113 1.25 0.80000001
0.80699134 -0.022008855 1.2371134 0.80833334
-0.12832485 -0.023331791 1.9672132 0.50833333
-0.034997687 -0.023331791 1.9672132 0.50833333
-0.023331791 -0.023331791 1.9672132 0.50833333
0.1779049 -0.023720656 2 0.5
0.18976524 -0.023720656 2 0.5
0.20162557 -0.023720656 2 0.5
0.33487982 -0.013953325 1.1764705 0.85000002
0.4131985 -0.015303648 1.2903225 0.77500004
0.42542475 -0.015469992 1.3043478 0.76666671
0.44665486 -0.015140843 1.2765957 0.78333336
0.4542253 -0.015140843 1.2765957 0.78333336
0.5374999 -0.015140843 1.2765957 0.78333336
0.56180495 -0.014981465 1.2631578 0.79166669
0.61424011 -0.014981465 1.2631578 0.79166669
0.62834501 -0.015140843 1.2765957 0.78333336
0.62922156 -0.014981465 1.2631578 0.79166669
0.63671231 -0.014981465 1.2631578 0.79166669
0.71161962 -0.014672569 1.2371134 0.80833334
0.77903622 -0.014981465 1.2631578 0.79166669
0.78652692 -0.014981465 1.2631578 0.79166669
0.79401767 -0.014981465 1.2631578 0.79166669
-0.73797596 -0.013178142 2.2222223 0.44999999
-0.72479784 -0.013178142 2.2222223 0.44999999
-0.034997687 -0.011665896 1.9672132 0.50833333
-0.023331791 -0.011665896 1.9672132 0.50833333
-0.011477737 -0.011477737 1.9354839 0.51666665
0.15165664 -0.011665896 1.9672132 0.50833333
0.16332254 -0.011665896 1.9672132 0.50833333
0.1779049 -0.011860328 2 0.5
0.18976524 -0.011860328 2 0.5
0.32552812 -0.0075704213 1.2765957 0.78333336
0.43908444 -0.0075704213 1.2765957 0.78333336
0.44665486 -0.0075704213 1.2765957 0.78333336
0.54507035 -0.0075704213 1.2765957 0.78333336
0.5526408 -0.0075704213 1.2765957 0.78333336
0.56021118 -0.0075704213 1.2765957 0.78333336
0.61320412 -0.0075704213 1.2765957 0.78333336
0.62077457 -0.0075704213 1.2765957 0.78333336
0.6217308 -0.0074907327 1.2631578 0.79166669
0.71161962 -0.0073362845 1.2371134 0.80833334
0.77154547 -0.0074907327 1.2631578 0.79166669
-0.73797596 0 2.2222223 0.44999999
-0.72479784 0 2.2222223 0.44999999
-0.2996293 0 2.105263 0.47500002
-0.080344155 0 1.9354839 0.51666665
-0.068866417 0 1.9354839 0.51666665
0 0 1.9354839 0.51666665
0.011295551 0 1.904762 0.52499998
0.022591101 0 1.904762 0.52499998
0.10165995 0 1.904762 0.52499998
0.1129555 0 1.904762 0.52499998
0.1262551 0 1.9354839 0.51666665
0.13999075 0 1.9672132 0.50833333
0.17498843 0 1.9672132 0.50833333
0.41768977 0 1.3043478 0.76666671
0.43908444 0 1.2765957 0.78333336
0.44665486 0 1.2765957 0.78333336
0.5526408 0 1.2765957 0.78333336
0.56021118 0 1.2765957 0.78333336
0.56778163 0 1.2765957 0.78333336
0.57535201 0 1.2765957 0.78333336
0.61320412 0 1.2765957 0.78333336
0.64420301 0 1.2631578 0.79166669
0.65169376 0 1.2631578 0.79166669
0.74907327 0 1.2631578 0.79166669
-0.72455817 0.012938539 2.1818182 0.45833331
-0.71161968 0.012938539 2.1818182 0.45833331
-0.60619456 0.013178142 2.2222223 0.44999999
-0.2996293 0.012484554 2.105263 0.47500002
-0.079068854 0.011295551 1.904762 0.52499998
-0.068866417 0.011477737 1.9354839 0.51666665
-0.058329482 0.011665896 1.9672132 0.50833333
0.011295551 0.011295551 1.904762 0.52499998
0.10165995 0.011295551 1.904762 0.52499998
0.11477736 0.011477737 1.9354839 0.51666665
0.1262551 0.011477737 1.9354839 0.51666665
0.13999075 0.011665896 1.9672132 0.50833333
0.41768977 0.0077349958 1.3043478 0.76666671
0.42542475 0.0077349958 1.3043478 0.76666671
0.56021118 0.0075704213 1.2765957 0.78333336
0.56778163 0.0075704213 1.2765957 0.78333336
0.65918446 0.0074907327 1.2631578 0.79166669
0.70420694 0.0074127046 1.25 0.80000001
0.74158257 0.0074907327 1.2631578 0.79166669
0.74907327 0.0074907327 1.2631578 0.79166669
0.86631954 0.0077349958 1.3043478 0.76666671
0.87405449 0.0077349958 1.3043478 0.76666671
-0.59517282 0.025877079 2.1818182 0.45833331
-0.2996293 0.024969108 2.105263 0.47500002
-0.28714475 0.024969108 2.105263 0.47500002
0.079068854 0.022591101 1.904762 0.52499998
0.090364404 0.022591101 1.904762 0.52499998
0.21461546 0.022591101 1.904762 0.52499998
0.22591101 0.022591101 1.904762 0.52499998
0.23720656 0.022591101 1.904762 0.52499998
0.43615395 0.015303648 1.2903225 0.77500004
0.43908444 0.015140843 1.2765957 0.78333336
0.59684229 0.015303648 1.2903225 0.77500004
0.60449409 0.015303648 1.2903225 0.77500004
0.60563374 0.015140843 1.2765957 0.78333336
0.64420301 0.014981465 1.2631578 0.79166669
0.74158257 0.014981465 1.2631578 0.79166669
0.74907327 0.014981465 1.2631578 0.79166669
0.84311455 0.015469992 1.3043478 0.76666671
0.87405449 0.015469992 1.3043478 0.76666671
-0.72455817 0.038815618 2.1818182 0.45833331
-0.60811132 0.038815618 2.1818182 0.45833331
-0.58454466 0.038122479 2.1428571 0.46666667
0.011119056 0.033357169 1.8749999 0.53333336
0.079068854 0.033886652 1.904762 0.52499998
0.19202437 0.033886652 1.904762 0.52499998
0.20331991 0.033886652 1.904762 0.52499998
0.21461546 0.033886652 1.904762 0.52499998
0.41768977 0.023204988 1.3043478 0.76666671
0.42542475 0.023204988 1.3043478 0.76666671
0.59684229 0.022955472 1.2903225 0.77500004
0.60449409 0.022955472 1.2903225 0.77500004
0.60563374 0.022711264 1.2765957 0.78333336
0.63671231 0.022472199 1.2631578 0.79166669
0.75656402 0.022472199 1.2631578 0.79166669
-0.71161962 0.050829973 2.1428571 0.46666667
-0.69891214 0.050829973 2.1428571 0.46666667
-0.59725219 0.050829973 2.1428571 0.46666667
-0.58454466 0.050829973 2.1428571 0.46666667
-0.38702118 0.049938217 2.105263 0.47500002
-0.37453663 0.049938217 2.105263 0.47500002
0.011295551 0.045182202 1.904762 0.52499998
0.022591101 0.045182202 1.904762 0.52499998
0.40995476 0.030939983 1.3043478 0.76666671
0.43615395 0.030607296 1.2903225 0.77500004
0.43908444 0.030281685 1.2765957 0.78333336
0.63007987 0.029650819 1.25 0.80000001
0.64420301 0.029962931 1.2631578 0.79166669
0.74190134 0.030281685 1.2765957 0.78333336
0.74907327 0.029962931 1.2631578 0.79166669
0.75656402 0.029962931 1.2631578 0.79166669
0.75609589 0.029650819 1.25 0.80000001
-1.2651017 0.079068854 2.6666667 0.375
-1.2492878 0.079068854 2.6666667 0.375
-1.2334741 0.079068854 2.6666667 0.375
-0.72432709 0.063537464 2.1428571 0.46666667
-0.71161962 0.063537464 2.1428571 0.46666667
-0.59725219 0.063537464 2.1428571 0.46666667
-0.38702118 0.062422771 2.105263 0.47500002
-0.37453663 0.062422771 2.105263 0.47500002
-0.36205208 0.062422771 2.105263 0.47500002
0 0.055595282 1.8749999 0.53333336
0.011119056 0.055595282 1.8749999 0.53333336
0.41906491 0.039534427 1.3333334 0.75
0.58012468 0.038674977 1.3043478 0.76666671
0.58785969 0.038674977 1.3043478 0.76666671
0.58919042 0.038259119 1.2903225 0.77500004
0.7422269 0.038259119 1.2903225 0.77500004
0.74987876 0.038259119 1.2903225 0.77500004
0.74830103 0.036681425 1.2371134 0.80833334
-1.2809154 0.094882622 2.6666667 0.375
-1.2651017 0.094882622 2.6666667 0.375
-1.2492878 0.094882622 2.6666667 0.375
-1.2334741 0.094882622 2.6666667 0.375
-0.71161962 0.076244958 2.1428571 0.46666667
-0.60995966 0.076244958 2.1428571 0.46666667
-0.38702118 0.074907325 2.105263 0.47500002
-0.37453663 0.074907325 2.105263 0.47500002
-0.36205208 0.074907325 2.105263 0.47500002
-0.23022988 0.062789969 1.7647059 0.56666666
-0.011295551 0.067773305 1.904762 0.52499998
0 0.067773305 1.904762 0.52499998
0.011295551 0.067773305 1.904762 0.52499998
0.18902396 0.066714339 1.8749999 0.53333336
0.24461924 0.066714339 1.8749999 0.53333336
0.25573829 0.066714339 1.8749999 0.53333336
0.26685736 0.066714339 1.8749999 0.53333336
0.27369985 0.065687962 1.8461537 0.54166669
0.31900188 0.049077213 1.3793103 0.72500002
0.41115803 0.047441311 1.3333334 0.75
0.41906491 0.047441311 1.3333334 0.75
0.57867974 0.046919979 1.3186814 0.75833333
0.58012468 0.046409976 1.3043478 0.76666671
0.58785969 0.046409976 1.3043478 0.76666671
0.60674936 0.044944398 1.2631578 0.79166669
0.74255961 0.046409976 1.3043478 0.76666671
0.74037188 0.043128461 1.2121211 0.82500005
-0.60995966 0.088952452 2.1428571 0.46666667
-0.3926177 0.085885122 2.0689654 0.48333335
-0.38034841 0.085885122 2.0689654 0.48333335
-0.3680791 0.085885122 2.0689654 0.48333335
-0.26552972 0.074348316 1.7910447 0.55833334
-0.23022988 0.073254965 1.7647059 0.56666666
0 0.079068854 1.904762 0.52499998
0.18611589 0.076635957 1.8461537 0.54166669
0.19706389 0.076635957 1.8461537 0.54166669
0.25573829 0.077833392 1.8749999 0.53333336
0.26685736 0.077833392 1.8749999 0.53333336
0.31900188 0.057256747 1.3793103 0.72500002
0.40778205 0.055970084 1.3483146 0.74166667
0.41115803 0.055348195 1.3333334 0.75
0.41906491 0.055348195 1.3333334 0.75
0.57867974 0.054739974 1.3186814 0.75833333
0.58012468 0.054144971 1.3043478 0.76666671
0.58785969 0.054144971 1.3043478 0.76666671
0.59806329 0.052992951 1.2765957 0.78333336
0.6374926 0.051888932 1.25 0.80000001
0.7348246 0.054144971 1.3043478 0.76666671
-0.75906098 0.094882622 2 0.5
-0.74720061 0.094882622 2 0.5
-0.7353403 0.094882622 2 0.5
-0.62266719 0.10165995 2.1428571 0.46666667
-0.60995966 0.10165995 2.1428571 0.46666667
-0.3926177 0.098154426 2.0689654 0.48333335
-0.38034841 0.098154426 2.0689654 0.48333335
-0.3680791 0.098154426 2.0689654 0.48333335
-0.26552972 0.084969506 1.7910447 0.55833334
0.18611589 0.087583952 1.8461537 0.54166669
0.3638964 0.064692698 1.3636364 0.73333335
0.39624277 0.064692698 1.3636364 0.73333335
0.39978632 0.063965812 1.3483146 0.74166667
0.40778205 0.063965812 1.3483146 0.74166667
0.57867974 0.06255997 1.3186814 0.75833333
0.58012468 0.061879966 1.3043478 0.76666671
0.58785969 0.061879966 1.3043478 0.76666671
0.59684229 0.061214592 1.2903225 0.77500004
0.7348246 0.061879966 1.3043478 0.76666671
0.74255961 0.061879966 1.3043478 0.76666671
-0.74720061 0.10674295 2 0.5
-0.7353403 0.10674295 2 0.5
-0.61174315 0.11236098 2.105263 0.47500002
-0.37390184 0.10855215 2.0338984 0.49166664
-0.36184052 0.10855215 2.0338984 0.49166664
0 0.10329963 1.9354839 0.51666665
0.38815618 0.072779283 1.3636364 0.73333335
0.3917906 0.071961537 1.3483146 0.74166667
0.39978632 0.071961537 1.3483146 0.74166667
0.40778205 0.071961537 1.3483146 0.74166667
0.43009979 0.070379965 1.3186814 0.75833333
0.56606108 0.072779283 1.3636364 0.73333335
0.56769657 0.071961537 1.3483146 0.74166667
0.5692957 0.071161963 1.3333334 0.75
0.57720262 0.071161963 1.3333334 0.75
0.58510947 0.071161963 1.3333334 0.75
0.58785969 0.069614962 1.3043478 0.76666671
0.75802958 0.069614962 1.3043478 0.76666671
-1.4232392 0.1482541 2.5 0.40000001
-1.4084139 0.1482541 2.5 0.40000001
-0.74720061 0.11860327 2 0.5
-0.37390184 0.1206135 2.0338984 0.49166664
-0.36184052 0.1206135 2.0338984 0.49166664
-0.034997687 0.11665896 1.9672132 0.50833333
-0.023331791 0.11665896 1.9672132 0.50833333
0.1751679 0.10947994 1.8461537 0.54166669
0.33155006 0.080865867 1.3636364 0.73333335
0.33963665 0.080865867 1.3636364 0.73333335
0.34772325 0.080865867 1.3636364 0.73333335
0.43009979 0.07819996 1.3186814 0.75833333
0.44278556 0.079068854 1.3333334 0.75
0.45069245 0.079068854 1.3333334 0.75
0.49813375 0.079068854 1.3333334 0.75
0.58510947 0.079068854 1.3333334 0.75
0.72725964 0.07819996 1.3186814 0.75833333
0.73507965 0.07819996 1.3186814 0.75833333
-1.4380647 0.1630795 2.5 0.40000001
-1.4232392 0.1630795 2.5 0.40000001
-1.4084139 0.1630795 2.5 0.40000001
-0.73495144 0.12832485 1.9672132 0.50833333
-0.36767015 0.1304636 2 0.5
-0.35580981 0.1304636 2 0.5
-0.011665896 0.12832485 1.9672132 0.50833333
0 0.12832485 1.9672132 0.50833333
0.034433208 0.1262551 1.9354839 0.51666665
0.33963665 0.088952459 1.3636364 0.73333335
0.34772325 0.088952459 1.3636364 0.73333335
0.35580984 0.088952459 1.3636364 0.73333335
0.41906491 0.086975738 1.3333334 0.75
0.4797436 0.087952994 1.3483146 0.74166667
0.48773932 0.087952994 1.3483146 0.74166667
0.49813375 0.086975738 1.3333334 0.75
0.51394755 0.086975738 1.3333334 0.75
0.5218544 0.086975738 1.3333334 0.75
0.72743344 0.086975738 1.3333334 0.75
0.72725964 0.086019956 1.3186814 0.75833333
-0.73457515 0.13773283 1.9354839 0.51666665
-0.72309738 0.13773283 1.9354839 0.51666665
-0.36767015 0.14232393 2 0.5
-0.35580981 0.14232393 2 0.5
-0.011665896 0.13999075 1.9672132 0.50833333
0 0.13999075 1.9672132 0.50833333
0.35181198 0.095948718 1.3483146 0.74166667
0.3598077 0.095948718 1.3483146 0.74166667
0.36780342 0.095948718 1.3483146 0.74166667
0.37579915 0.095948718 1.3483146 0.74166667
0.40778205 0.095948718 1.3483146 0.74166667
0.41115803 0.094882622 1.3333334 0.75
0.41906491 0.094882622 1.3333334 0.75
0.47174788 0.095948718 1.3483146 0.74166667
0.4797436 0.095948718 1.3483146 0.74166667
0.48773932 0.095948718 1.3483146 0.74166667
0.59301639 0.094882622 1.3333334 0.75
0.6009233 0.094882622 1.3333334 0.75
-0.72291523 0.14684215 1.904762 0.52499998
-0.36164278 0.15165664 1.9672132 0.50833333
-0.34997687 0.15165664 1.9672132 0.50833333
-0.011665896 0.15165664 1.9672132 0.50833333
0 0.15165664 1.9672132 0.50833333
0.22365189 0.13215794 1.7142857 0.58333331
0.23381789 0.13215794 1.7142857 0.58333331
0.24398388 0.13215794 1.7142857 0.58333331
0.35181198 0.10394444 1.3483146 0.74166667
0.3598077 0.10394444 1.3483146 0.74166667
0.36780342 0.10394444 1.3483146 0.74166667
0.4797436 0.10394444 1.3483146 0.74166667
0.5218544 0.10278951 1.3333334 0.75
0.52393973 0.10165995 1.3186814 0.75833333
0.6009233 0.10278951 1.3333334 0.75
0.71161968 0.10394444 1.3483146 0.74166667
0.74289966 0.10165995 1.3186814 0.75833333
0.75071967 0.10165995 1.3186814 0.75833333
0.75853962 0.10165995 1.3186814 0.75833333
-0.73421079 0.15813771 1.904762 0.52499998
-0.72291523 0.15813771 1.904762 0.52499998
-0.53945363 0.16068831 1.9354839 0.51666665
-0.52797586 0.16068831 1.9354839 0.51666665
-0.37330866 0.16332254 1.9672132 0.50833333
-0.36164278 0.16332254 1.9672132 0.50833333
-0.34997687 0.16332254 1.9672132 0.50833333
-0.022955474 0.16068831 1.9354839 0.51666665
-0.011477737 0.16068831 1.9354839 0.51666665
0.23381789 0.14232393 1.7142857 0.58333331
0.24398388 0.14232393 1.7142857 0.58333331
0.34772325 0.11321221 1.3636364 0.73333335
0.35181198 0.11194017 1.3483146 0.74166667
0.49022686 0.11069639 1.3333334 0.75
0.49813375 0.11069639 1.3333334 0.75
0.50604063 0.11069639 1.3333334 0.75
0.67963678 0.11194017 1.3483146 0.74166667
0.70344007 0.11451349 1.3793103 0.72500002
0.73507965 0.10947995 1.3186814 0.75833333
0.75071967 0.10947995 1.3186814 0.75833333
-0.73421079 0.16943327 1.904762 0.52499998
-0.54218644 0.16943327 1.904762 0.52499998
-0.53089088 0.16943327 1.904762 0.52499998
-0.36728758 0.17216605 1.9354839 0.51666665
-0.35580984 0.17216605 1.9354839 0.51666665
-0.3443321 0.17216605 1.9354839 0.51666665
-0.32346347 0.19407809 2.1818182 0.45833331
-0.31052494 0.19407809 2.1818182 0.45833331
0.32192314 0.12707493 1.4285713 0.70000005
0.34354049 0.12269303 1.3793103 0.72500002
0.34772325 0.1212988 1.3636364 0.73333335
0.48231998 0.11860327 1.3333334 0.75
0.49022686 0.11860327 1.3333334 0.75
0.49813375 0.11860327 1.3333334 0.75
0.50604063 0.11860327 1.3333334 0.75
0.65501356 0.1212988 1.3636364 0.73333335
0.66310012 0.1212988 1.3636364 0.73333335
0.67963678 0.1199359 1.3483146 0.74166667
0.90138489 0.11860327 1.3333334 0.75
-0.72273862 0.1779049 1.8749999 0.53333336
-0.54218644 0.18072881 1.904762 0.52499998
-0.53089088 0.18072881 1.904762 0.52499998
-0.35580984 0.18364379 1.9354839 0.51666665
-0.3443321 0.18364379 1.9354839 0.51666665
-0.32346347 0.20701663 2.1818182 0.45833331
-0.31052494 0.20701663 2.1818182 0.45833331
-0.06554392 0.14981467 1.5789474 0.63333333
-0.056180499 0.14981467 1.5789474 0.63333333
-0.046817083 0.14981467 1.5789474 0.63333333
0.30865431 0.13717969 1.4457831 0.69166666
0.31813583 0.13395192 1.4117646 0.70833337
0.32650781 0.13395192 1.4117646 0.70833337
0.33487982 0.13395192 1.4117646 0.70833337
0.63884038 0.1293854 1.3636364 0.73333335
0.66310012 0.1293854 1.3636364 0.73333335
0.69562823 0.12793162 1.3483146 0.74166667
0.70362395 0.12793162 1.3483146 0.74166667
0.71161968 0.12793162 1.3483146 0.74166667
0.90792847 0.13087256 1.3793103 0.72500002
0.9092918 0.12651016 1.3333334 0.75
-0.553482 0.19202437 1.904762 0.52499998
-0.54218644 0.19202437 1.904762 0.52499998
-0.35016206 0.19202437 1.904762 0.52499998
-0.33886653 0.19202437 1.904762 0.52499998
-0.31052494 0.21995516 2.1818182 0.45833331
-0.10299759 0.15917808 1.5789474 0.63333333
-0.093634166 0.15917808 1.5789474 0.63333333
-0.084270753 0.15917808 1.5789474 0.63333333
-0.074907333 0.15917808 1.5789474 0.63333333
0.16678584 0.18902396 1.8749999 0.53333336
0.31813583 0.14232393 1.4117646 0.70833337
0.32650781 0.14232393 1.4117646 0.70833337
0.33536094 0.13905211 1.3793103 0.72500002
0.34354049 0.13905211 1.3793103 0.72500002
0.63884038 0.13747197 1.3636364 0.73333335
0.64692694 0.13747197 1.3636364 0.73333335
0.65501356 0.13747197 1.3636364 0.73333335
0.66310012 0.13747197 1.3636364 0.73333335
0.67164105 0.13592735 1.3483146 0.74166667
0.67208523 0.13441704 1.3333334 0.75
0.6876325 0.13592735 1.3483146 0.74166667
0.88338983 0.13905211 1.3793103 0.72500002
0.90792847 0.13905211 1.3793103 0.72500002
0.89552134 0.13592735 1.3483146 0.74166667
0.89725947 0.13149492 1.3043478 0.76666671
0.90499449 0.13149492 1.3043478 0.76666671
-0.73385769 0.20014301 1.8749999 0.53333336
-0.553482 0.20331991 1.904762 0.52499998
-0.54218644 0.20331991 1.904762 0.52499998
-0.35016206 0.20331991 1.904762 0.52499998
-0.33886653 0.20331991 1.904762 0.52499998
-0.1988349 0.1883699 1.7647059 0.56666666
-0.1883699 0.1883699 1.7647059 0.56666666
-0.093634166 0.16854151 1.5789474 0.63333333
-0.084270753 0.16854151 1.5789474 0.63333333
-0.074907333 0.16854151 1.5789474 0.63333333
-0.06554392 0.16854151 1.5789474 0.63333333
-0.055450883 0.16635264 1.5584416 0.64166665
0.16678584 0.20014301 1.8749999 0.53333336
0.33487982 0.15069592 1.4117646 0.70833337
0.34325179 0.15069592 1.4117646 0.70833337
0.34354049 0.14723164 1.3793103 0.72500002
0.64692694 0.14555857 1.3636364 0.73333335
0.65501356 0.14555857 1.3636364 0.73333335
0.67164105 0.14392307 1.3483146 0.74166667
0.67208523 0.14232393 1.3333334 0.75
0.67999214 0.14232393 1.3333334 0.75
0.82355982 0.14392307 1.3483146 0.74166667
0.81327963 0.14075993 1.3186814 0.75833333
-0.55595279 0.21126206 1.8749999 0.53333336
-0.54483378 0.21126206 1.8749999 0.53333336
-0.50035751 0.21126206 1.8749999 0.53333336
-0.48171172 0.20801188 1.8461537 0.54166669
-0.47076374 0.20801188 1.8461537 0.54166669
-0.36692885 0.21126206 1.8749999 0.53333336
-0.35580981 0.21126206 1.8749999 0.53333336
-0.34469074 0.21126206 1.8749999 0.53333336
-0.33357167 0.21126206 1.8749999 0.53333336
-0.21976489 0.1988349 1.7647059 0.56666666
-0.20626657 0.19595324 1.7391305 0.57499999
-0.07393451 0.17559446 1.5584416 0.64166665
0.16943327 0.21461546 1.904762 0.52499998
0.21126206 0.21126206 1.8749999 0.53333336
0.33487982 0.15906791 1.4117646 0.70833337
0.34325179 0.15906791 1.4117646 0.70833337
0.81327963 0.14857993 1.3186814 0.75833333
0.83022296 0.15023082 1.3333334 0.75
-0.55595279 0.22238113 1.8749999 0.53333336
-0.54483378 0.22238113 1.8749999 0.53333336
-0.49265972 0.21895988 1.8461537 0.54166669
-0.48171172 0.21895988 1.8461537 0.54166669
-0.47076374 0.21895988 1.8461537 0.54166669
-0.35580981 0.22238113 1.8749999 0.53333336
-0.34469074 0.22238113 1.8749999 0.53333336
-0.33357167 0.22238113 1.8749999 0.53333336
-0.092418142 0.18483628 1.5584416 0.64166665
-0.083176322 0.18483628 1.5584416 0.64166665
-0.07393451 0.18483628 1.5584416 0.64166665
0 0.15991452 1.3483146 0.74166667
0.13342868 0.22238113 1.8749999 0.53333336
0.20331991 0.22591101 1.904762 0.52499998
0.21461546 0.22591101 1.904762 0.52499998
0.30865431 0.17147461 1.4457831 0.69166666
0.4659414 0.16943324 1.4285713 0.70000005
0.65501356 0.16173173 1.3636364 0.73333335
0.66310012 0.16173173 1.3636364 0.73333335
0.67164105 0.15991452 1.3483146 0.74166667
0.68841463 0.15469991 1.3043478 0.76666671
0.82891959 0.15639992 1.3186814 0.75833333
0.8367396 0.15639992 1.3186814 0.75833333
-0.40360516 0.22304495 1.7910447 0.55833334
-0.39298397 0.22304495 1.7910447 0.55833334
-0.35580981 0.23350018 1.8749999 0.53333336
-0.34469074 0.23350018 1.8749999 0.53333336
-0.33357167 0.23350018 1.8749999 0.53333336
-0.26162487 0.21976489 1.7647059 0.56666666
-0.23720655 0.2165799 1.7391305 0.57499999
-0.23022988 0.21976489 1.7647059 0.56666666
-0.2134859 0.2134859 1.7142857 0.58333331
-0.091233291 0.19158991 1.5384616 0.64999998
-0.082109958 0.19158991 1.5384616 0.64999998
-0.072986633 0.19158991 1.5384616 0.64999998
0.0078199962 0.16421992 1.3186814 0.75833333
0.25877076 0.22642443 1.8181818 0.55000001
0.26955289 0.22642443 1.8181818 0.55000001
0.44052643 0.1779049 1.4285713 0.70000005
0.44899809 0.1779049 1.4285713 0.70000005
0.45746973 0.1779049 1.4285713 0.70000005
0.4659414 0.1779049 1.4285713 0.70000005
0.64692694 0.16981833 1.3636364 0.73333335
0.64765382 0.16791026 1.3483146 0.74166667
0.6556496 0.16791026 1.3483146 0.74166667
0.8155641 0.16791026 1.3483146 0.74166667
0.82355982 0.16791026 1.3483146 0.74166667
0.81327963 0.16421992 1.3186814 0.75833333
0.81874514 0.1606883 1.2903225 0.77500004
-0.69037724 0.23366614 1.7910447 0.55833334
-0.67975605 0.23366614 1.7910447 0.55833334
-0.65851367 0.23366614 1.7910447 0.55833334
-0.62665009 0.23366614 1.7910447 0.55833334
-0.6160289 0.23366614 1.7910447 0.55833334
-0.60540771 0.23366614 1.7910447 0.55833334
-0.59478652 0.23366614 1.7910447 0.55833334
-0.5498879 0.23720653 1.8181818 0.55000001
-0.53910577 0.23720653 1.8181818 0.55000001
-0.45981574 0.24085586 1.8461537 0.54166669
-0.44886774 0.24085586 1.8461537 0.54166669
-0.40360516 0.23366614 1.7910447 0.55833334
-0.39298397 0.23366614 1.7910447 0.55833334
-0.39412779 0.24085586 1.8461537 0.54166669
-0.35580981 0.24461924 1.8749999 0.53333336
-0.34469074 0.24461924 1.8749999 0.53333336
-0.33357167 0.24461924 1.8749999 0.53333336
-0.22050184 0.22050184 1.6901407 0.5916667
-0.2047125 0.2144607 1.6438355 0.60833335
-0.20045622 0.22050184 1.6901407 0.5916667
-0.091233291 0.20071323 1.5384616 0.64999998
-0.082109958 0.20071323 1.5384616 0.64999998
-0.072986633 0.20071323 1.5384616 0.64999998
0.20331991 0.24850212 1.904762 0.52499998
0.23350018 0.24461924 1.8749999 0.53333336
0.25877076 0.23720653 1.8181818 0.55000001
0.26955289 0.23720653 1.8181818 0.55000001
0.3134515 0.18637656 1.4285713 0.70000005
0.32192314 0.18637656 1.4285713 0.70000005
0.3303948 0.18637656 1.4285713 0.70000005
0.43205476 0.18637656 1.4285713 0.70000005
0.44052643 0.18637656 1.4285713 0.70000005
0.44899809 0.18637656 1.4285713 0.70000005
0.48557574 0.1841839 1.4117646 0.70833337
0.80899912 0.16479611 1.2631578 0.79166669
0.81648988 0.16479611 1.2631578 0.79166669
-0.71161962 0.24798866 1.8181818 0.55000001
-0.69037724 0.24428733 1.7910447 0.55833334
-0.67975605 0.24428733 1.7910447 0.55833334
-0.53105944 0.24428733 1.7910447 0.55833334
-0.50675941 0.24798866 1.8181818 0.55000001
-0.45284885 0.24798866 1.8181818 0.55000001
-0.44206673 0.24798866 1.8181818 0.55000001
-0.35580981 0.25573829 1.8749999 0.53333336
-0.34469074 0.25573829 1.8749999 0.53333336
-0.26162487 0.24069488 1.7647059 0.56666666
-0.22050184 0.23052466 1.6901407 0.5916667
-0.2047125 0.22420892 1.6438355 0.60833335
0.20659925 0.26398793 1.9354839 0.51666665
0.22591101 0.25979766 1.904762 0.52499998
0.25877076 0.24798866 1.8181818 0.55000001
0.40787956 0.19960064 1.4634147 0.68333334
0.42868653 0.1971958 1.4457831 0.69166666
0.43205476 0.19484822 1.4285713 0.70000005
0.47720373 0.19255589 1.4117646 0.70833337
0.48557574 0.19255589 1.4117646 0.70833337
0.51442385 0.1971958 1.4457831 0.69166666
0.54218638 0.19484822 1.4285713 0.70000005
0.59441167 0.19255589 1.4117646 0.70833337
0.61843133 0.19484822 1.4285713 0.70000005
-0.72256762 0.26275185 1.8461537 0.54166669
-0.70083749 0.25877076 1.8181818 0.55000001
-0.69005537 0.25877076 1.8181818 0.55000001
-0.65851367 0.25490853 1.7910447 0.55833334
-0.25783321 0.24751988 1.7391305 0.57499999
-0.054047059 0.21618824 1.5189873 0.65833336
-0.045039218 0.21618824 1.5189873 0.65833336
0.030939985 0.24751988 1.7391305 0.57499999
0.22591101 0.27109322 1.904762 0.52499998
0.26275185 0.26275185 1.8461537 0.54166669
0.33886653 0.27109322 1.904762 0.52499998
0.40787956 0.20827892 1.4634147 0.68333334
0.45746973 0.20331989 1.4285713 0.70000005
0.53371471 0.20331989 1.4285713 0.70000005
0.54218638 0.20331989 1.4285713 0.70000005
0.55065805 0.20331989 1.4285713 0.70000005
0.55912966 0.20331989 1.4285713 0.70000005
0.62789965 0.20092788 1.4117646 0.70833337
0.63627166 0.20092788 1.4117646 0.70833337
0.64464366 0.20092788 1.4117646 0.70833337
0.71999156 0.20092788 1.4117646 0.70833337
0.8048079 0.20331989 1.4285713 0.70000005
0.82175118 0.20331989 1.4285713 0.70000005
0.82045555 0.20092788 1.4117646 0.70833337
-0.59301633 0.26955289 1.8181818 0.55000001
-0.5498879 0.26955289 1.8181818 0.55000001
-0.32245263 0.27797639 1.8749999 0.53333336
-0.30189922 0.26955289 1.8181818 0.55000001
-0.25414988 0.25414988 1.7142857 0.58333331
-0.23395713 0.24370535 1.6438355 0.60833335
-0.2144607 0.24370535 1.6438355 0.60833335
-0.045039218 0.22519608 1.5189873 0.65833336
-0.036967255 0.23104535 1.5584416 0.64166665
0.030939985 0.25783321 1.7391305 0.57499999
0.041253313 0.25783321 1.7391305 0.57499999
0.051566642 0.25783321 1.7391305 0.57499999
0.06187997 0.25783321 1.7391305 0.57499999
0.25180385 0.27369985 1.8461537 0.54166669
0.26275185 0.27369985 1.8461537 0.54166669
0.33886653 0.28238878 1.904762 0.52499998
0.40296534 0.21434326 1.4457831 0.69166666
0.44052643 0.21179155 1.4285713 0.70000005
0.44899809 0.21179155 1.4285713 0.70000005
0.45746973 0.21179155 1.4285713 0.70000005
0.53371471 0.21179155 1.4285713 0.70000005
0.54218638 0.21179155 1.4285713 0.70000005
0.56267595 0.20686616 1.3953488 0.7166667
0.66078961 0.21179155 1.4285713 0.70000005
0.71999156 0.20929988 1.4117646 0.70833337
0.72836357 0.20929988 1.4117646 0.70833337
0.73673558 0.20929988 1.4117646 0.70833337
0.79633623 0.21179155 1.4285713 0.70000005
0.8048079 0.21179155 1.4285713 0.70000005
0.80371153 0.20929988 1.4117646 0.70833337
0.81208354 0.20929988 1.4117646 0.70833337
0.82045555 0.20929988 1.4117646 0.70833337
0.81919003 0.20686616 1.3953488 0.7166667
0.83719951 0.20929988 1.4117646 0.70833337
-0.63498366 0.28464785 1.8461537 0.54166669
-0.62403566 0.28464785 1.8461537 0.54166669
-0.33357167 0.28909546 1.8749999 0.53333336
-0.32245263 0.28909546 1.8749999 0.53333336
-0.30189922 0.28033501 1.8181818 0.55000001
0.21807699 0.29842114 1.9354839 0.51666665
0.25573829 0.28909546 1.8749999 0.53333336
0.36448812 0.2256355 1.4634147 0.68333334
0.37316641 0.2256355 1.4634147 0.68333334
0.40296534 0.22291699 1.4457831 0.69166666
0.41153908 0.22291699 1.4457831 0.69166666
0.43534374 0.21767187 1.4117646 0.70833337
0.81208354 0.21767187 1.4117646 0.70833337
0.81919003 0.21514082 1.3953488 0.7166667
0.89799619 0.22026321 1.4285713 0.70000005
-0.71161962 0.29559582 1.8461537 0.54166669
-0.67877561 0.29559582 1.8461537 0.54166669
-0.66782761 0.29559582 1.8461537 0.54166669
-0.62403566 0.29559582 1.8461537 0.54166669
-0.61308765 0.29559582 1.8461537 0.54166669
-0.55595279 0.30021453 1.8749999 0.53333336
-0.31268135 0.2911171 1.8181818 0.55000001
-0.29739326 0.28677207 1.7910447 0.55833334
0.20162557 0.32022884 2 0.5
0.21807699 0.30989888 1.9354839 0.51666665
0.24461924 0.30021453 1.8749999 0.53333336
0.25573829 0.30021453 1.8749999 0.53333336
0.32245263 0.30021453 1.8749999 0.53333336
0.33357167 0.30021453 1.8749999 0.53333336
0.35580984 0.23431379 1.4634147 0.68333334
0.36448812 0.23431379 1.4634147 0.68333334
0.37316641 0.23431379 1.4634147 0.68333334
0.68620461 0.22873487 1.4285713 0.70000005
0.73673558 0.22604387 1.4117646 0.70833337
0.88105285 0.22873487 1.4285713 0.70000005
0.88952452 0.22873487 1.4285713 0.70000005
0.89799619 0.22873487 1.4285713 0.70000005
0.89156938 0.22084746 1.3793103 0.72500002
-0.72273862 0.31133357 1.8749999 0.53333336
-0.67826241 0.31133357 1.8749999 0.53333336
-0.57607305 0.31627542 1.904762 0.52499998
-0.56477755 0.31627542 1.904762 0.52499998
-0.16359071 0.22902699 1.3793103 0.72500002
-0.15541117 0.22902699 1.3793103 0.72500002
-0.14723164 0.22902699 1.3793103 0.72500002
0.18976524 0.33208916 2 0.5
0.24461924 0.31133357 1.8749999 0.53333336
0.25573829 0.31133357 1.8749999 0.53333336
0.31749183 0.30654383 1.8461537 0.54166669
0.36448812 0.24299207 1.4634147 0.68333334
0.37316641 0.24299207 1.4634147 0.68333334
0.3818447 0.24299207 1.4634147 0.68333334
0.54014504 0.24006446 1.4457831 0.69166666
0.67512631 0.2554532 1.5384616 0.64999998
0.68424964 0.2554532 1.5384616 0.64999998
0.69337302 0.2554532 1.5384616 0.64999998
0.66975963 0.23441587 1.4117646 0.70833337
0.67813164 0.23441587 1.4117646 0.70833337
0.7197991 0.22902699 1.3793103 0.72500002
0.77022356 0.23441587 1.4117646 0.70833337
0.77859557 0.23441587 1.4117646 0.70833337
0.79533952 0.23441587 1.4117646 0.70833337
0.87258118 0.23720653 1.4285713 0.70000005
0.88105285 0.23720653 1.4285713 0.70000005
0.88952452 0.23720653 1.4285713 0.70000005
0.8874315 0.23441587 1.4117646 0.70833337
0.89580351 0.23441587 1.4117646 0.70833337
-1.0875696 0.38937676 2.2641509 0.44166669
-1.060716 0.38937676 2.2641509 0.44166669
-1.0472893 0.38937676 2.2641509 0.44166669
-0.67826241 0.32245263 1.8749999 0.53333336
-0.56477755 0.32757097 1.904762 0.52499998
-0.17994978 0.23720653 1.3793103 0.72500002
-0.17177024 0.23720653 1.3793103 0.72500002
-0.16359071 0.23720653 1.3793103 0.72500002
-0.15541117 0.23720653 1.3793103 0.72500002
-0.14723164 0.23720653 1.3793103 0.72500002
-0.027725441 0.26801261 1.5584416 0.64166665
0.18976524 0.3439495 2 0.5
0.24461924 0.32245263 1.8749999 0.53333336
0.53157133 0.24863818 1.4457831 0.69166666
0.54014504 0.24863818 1.4457831 0.69166666
0.66975963 0.24278787 1.4117646 0.70833337
0.67813164 0.24278787 1.4117646 0.70833337
-1.0472893 0.40280354 2.2641509 0.44166669
-1.0338625 0.40280354 2.2641509 0.44166669
-0.56477755 0.33886653 1.904762 0.52499998
-0.553482 0.33886653 1.904762 0.52499998
-0.17994978 0.24538606 1.3793103 0.72500002
-0.17177024 0.24538606 1.3793103 0.72500002
-0.16359071 0.24538606 1.3793103 0.72500002
-0.15541117 0.24538606 1.3793103 0.72500002
0.0092418138 0.27725443 1.5584416 0.64166665
0.018483628 0.27725443 1.5584416 0.64166665
0.18976524 0.35580981 2 0.5
0.24461924 0.33357167 1.8749999 0.53333336
0.32245263 0.33357167 1.8749999 0.53333336
0.3284398 0.3284398 1.8461537 0.54166669
0.52937561 0.26034865 1.4634147 0.68333334
0.53805387 0.26034865 1.4634147 0.68333334
0.54014504 0.25721192 1.4457831 0.69166666
0.66975963 0.25115985 1.4117646 0.70833337
0.67813164 0.25115985 1.4117646 0.70833337
-1.1009964 0.41623035 2.2641509 0.44166669
-1.060716 0.41623035 2.2641509 0.44166669
-1.0472893 0.41623035 2.2641509 0.44166669
-0.58736861 0.35016206 1.904762 0.52499998
-0.56477755 0.35016206 1.904762 0.52499998
-0.17994978 0.25356561 1.3793103 0.72500002
-0.15541117 0.25356561 1.3793103 0.72500002
-0.14723164 0.25356561 1.3793103 0.72500002
0.0091233291 0.2828232 1.5384616 0.64999998
0.027725441 0.28649622 1.5584416 0.64166665
0.036493316 0.2828232 1.5384616 0.64999998
0.046817083 0.29026592 1.5789474 0.63333333
0.23350018 0.34469074 1.8749999 0.53333336
0.24461924 0.34469074 1.8749999 0.53333336
0.31749183 0.3393878 1.8461537 0.54166669
0.30748996 0.27234825 1.4814814 0.67500001
0.33384624 0.27234825 1.4814814 0.67500001
0.52937561 0.26902694 1.4634147 0.68333334
0.53805387 0.26902694 1.4634147 0.68333334
0.54014504 0.26578566 1.4457831 0.69166666
0.6671434 0.2757526 1.5 0.66666669
0.67603868 0.2757526 1.5 0.66666669
0.67813164 0.25953186 1.4117646 0.70833337
0.83022285 0.26262152 1.4285713 0.70000005
0.83869451 0.26262152 1.4285713 0.70000005
0.87068748 0.25953186 1.4117646 0.70833337
-1.060716 0.42965713 2.2641509 0.44166669
-1.0472893 0.42965713 2.2641509 0.44166669
-0.56477755 0.36145762 1.904762 0.52499998
-0.553482 0.36145762 1.904762 0.52499998
-0.18812932 0.26174513 1.3793103 0.72500002
-0.036967255 0.29573804 1.5584416 0.64166665
-0.027725441 0.29573804 1.5584416 0.64166665
0 0.28825098 1.5189873 0.65833336
0.0091233291 0.29194653 1.5384616 0.64999998
0.1751679 0.35033581 1.8461537 0.54166669
0.23350018 0.35580981 1.8749999 0.53333336
0.24461924 0.35580981 1.8749999 0.53333336
0.31133357 0.35580981 1.8749999 0.53333336
0.32245263 0.35580981 1.8749999 0.53333336
0.30748996 0.28113368 1.4814814 0.67500001
0.31627539 0.28113368 1.4814814 0.67500001
0.32506081 0.28113368 1.4814814 0.67500001
0.33384624 0.28113368 1.4814814 0.67500001
0.34263167 0.28113368 1.4814814 0.67500001
0.35580981 0.28464785 1.5 0.66666669
0.36470506 0.28464785 1.5 0.66666669
0.3736003 0.28464785 1.5 0.66666669
0.38249555 0.28464785 1.5 0.66666669
0.3913908 0.28464785 1.5 0.66666669
0.51834023 0.28113368 1.4814814 0.67500001
0.5206973 0.27770522 1.4634147 0.68333334
0.52937561 0.27770522 1.4634147 0.68333334
0.53805387 0.27770522 1.4634147 0.68333334
0.54673219 0.27770522 1.4634147 0.68333334
0.54871875 0.27435938 1.4457831 0.69166666
0.55912966 0.27109319 1.4285713 0.70000005
0.66975963 0.26790383 1.4117646 0.70833337
0.67813164 0.26790383 1.4117646 0.70833337
0.68650359 0.26790383 1.4117646 0.70833337
0.84022558 0.27435938 1.4457831 0.69166666
0.84879935 0.27435938 1.4457831 0.69166666
0.85394353 0.26790383 1.4117646 0.70833337
0.86231554 0.26790383 1.4117646 0.70833337
0.87068748 0.26790383 1.4117646 0.70833337
0.87905949 0.26790383 1.4117646 0.70833337
-0.78161502 0.38497457 1.9672132 0.50833333
-0.74661732 0.38497457 1.9672132 0.50833333
-0.553482 0.37275317 1.904762 0.52499998
-0.29811093 0.31734389 1.6216216 0.61666667
-0.1859915 0.26685736 1.3636364 0.73333335
-0.17590599 0.26385897 1.3483146 0.74166667
-0.036967255 0.30497986 1.5584416 0.64166665
-0.027725441 0.30497986 1.5584416 0.64166665
-0.018246658 0.30106986 1.5384616 0.64999998
0 0.29725882 1.5189873 0.65833336
0.0091233291 0.30106986 1.5384616 0.64999998
0.1642199 0.36128381 1.8461537 0.54166669
0.16993901 0.35049921 1.7910447 0.55833334
0.22990787 0.36128381 1.8461537 0.54166669
0.28909546 0.36692885 1.8749999 0.53333336
0.30654383 0.36128381 1.8461537 0.54166669
0.31749183 0.36128381 1.8461537 0.54166669
0.31627539 0.28991911 1.4814814 0.67500001
0.33384624 0.28991911 1.4814814 0.67500001
0.34691459 0.2935431 1.5 0.66666669
0.35580981 0.2935431 1.5 0.66666669
0.36470506 0.2935431 1.5 0.66666669
0.3913908 0.2935431 1.5 0.66666669
0.40535295 0.29725882 1.5189873 0.65833336
0.41807655 0.2935431 1.5 0.66666669
0.52481949 0.2935431 1.5 0.66666669
