# .PCD v0.7 - Point Cloud Data file format
VERSION 0.7
FIELDS x y z intensity
SIZE 4 4 4 4
TYPE F F F F
COUNT 1 1 1 1
WIDTH 1103
HEIGHT 1
VIEWPOINT 0 0 0 1 0 0 0
POINTS 1103
DATA ascii
-0.52465767 0.27414542 1.4285715 0.69999999
-0.51657665 0.27237678 1.4193549 0.70454544
-0.5021612 0.26720506 1.3924052 0.71818179
-0.49442497 0.26552454 1.3836479 0.72272724
-0.40341634 0.25432768 1.3253012 0.75454545
-0.39903137 0.25432768 1.3253012 0.75454545
-0.40190986 0.25900859 1.3496933 0.74090904
-0.39744419 0.25900859 1.3496933 0.74090904
-0.4003469 0.26386499 1.3750001 0.72727269
-0.39579749 0.26386499 1.3750001 0.72727269
-0.39124811 0.26386499 1.3750001 0.72727269
-0.38429683 0.26222607 1.3664597 0.73181814
-0.32010207 0.25432768 1.3253012 0.75454545
-0.28596205 0.25129998 1.3095238 0.76363635
-0.12811099 0.33774716 1.76 0.56818181
-0.69046837 0.24540743 1.2571429 0.7954545
-0.54261887 0.26028061 1.3333334 0.75
-0.5281738 0.26186767 1.3414634 0.74545455
-0.52647102 0.27010253 1.3836479 0.72272724
-0.52189302 0.27010253 1.3836479 0.72272724
-0.52058917 0.27181205 1.3924052 0.71818179
-0.51598215 0.27181205 1.3924052 0.71818179
-0.44656649 0.26347423 1.3496933 0.74090904
-0.43940511 0.26186767 1.3414634 0.74545455
-0.42972609 0.25871265 1.3253012 0.75454545
-0.41218624 0.25871265 1.3253012 0.75454545
-0.40535939 0.25716347 1.3173653 0.7590909
-0.40341634 0.25871265 1.3253012 0.75454545
-0.39903137 0.25871265 1.3253012 0.75454545
-0.40190986 0.26347423 1.3496933 0.74090904
-0.39744419 0.26347423 1.3496933 0.74090904
-0.4003469 0.26841441 1.3750001 0.72727269
-0.30524981 0.34634113 1.7741935 0.56363636
-0.17357697 0.33035615 1.6923077 0.59090906
-0.061168354 0.36089331 1.8487396 0.54090905
-0.68723845 0.24398999 1.2290504 0.8136363
-0.69878727 0.24956688 1.2571429 0.7954545
-0.55235022 0.25690708 1.2941177 0.77272725
-0.53950489 0.25690708 1.2941177 0.77272725
-0.54812002 0.26309761 1.3253012 0.75454545
-0.55036598 0.26630613 1.3414634 0.74545455
-0.54927683 0.2679399 1.3496933 0.74090904
-0.551579 0.27126837 1.3664597 0.73181814
-0.54705787 0.27126837 1.3664597 0.73181814
-0.53587979 0.2679399 1.3496933 0.74090904
-0.5380156 0.27126837 1.3664597 0.73181814
-0.52897328 0.27126837 1.3664597 0.73181814
-0.53104907 0.27468055 1.3836479 0.72272724
-0.54005736 0.28176907 1.4193549 0.70454544
-0.48069096 0.27468055 1.3836479 0.72272724
-0.47019848 0.27126837 1.3664597 0.73181814
-0.46280283 0.26959386 1.3580248 0.73636353
-0.45830959 0.26959386 1.3580248 0.73636353
-0.45381635 0.26959386 1.3580248 0.73636353
-0.43940511 0.26630613 1.3414634 0.74545455
-0.42972609 0.26309761 1.3253012 0.75454545
-0.41779071 0.25842726 1.3017752 0.7681818
-0.41348359 0.25842726 1.3017752 0.7681818
-0.41407678 0.26152217 1.3173653 0.7590909
-0.41218624 0.26309761 1.3253012 0.75454545
-0.28945866 0.25540471 1.2865498 0.77727264
-0.26863101 0.25996551 1.3095238 0.76363635
-0.15629828 0.2679399 1.3496933 0.74090904
-0.15183261 0.2679399 1.3496933 0.74090904
-0.17060235 0.3412047 1.71875 0.58181816
-0.095187366 0.33595541 1.6923077 0.59090906
-0.086270034 0.32351264 1.6296297 0.61363631
-0.080878161 0.32351264 1.6296297 0.61363631
-0.07548628 0.32351264 1.6296297 0.61363631
-0.60351485 0.28102601 1.3924052 0.71818179
-0.59142154 0.27751318 1.3750001 0.72727269
-0.57160515 0.27240556 1.3496933 0.74090904
-0.57064039 0.2740871 1.3580248 0.73636353
-0.56267381 0.27240556 1.3496933 0.74090904
-0.55820811 0.27240556 1.3496933 0.74090904
-0.55716068 0.2740871 1.3580248 0.73636353
-0.55610013 0.2757895 1.3664597 0.73181814
-0.55502635 0.27751318 1.3750001 0.72727269
-0.55047697 0.27751318 1.3750001 0.72727269
-0.53587979 0.27240556 1.3496933 0.74090904
-0.52694845 0.27240556 1.3496933 0.74090904
-0.48984697 0.27925855 1.3836479 0.72272724
-0.48526895 0.27925855 1.3836479 0.72272724
-0.48069096 0.27925855 1.3836479 0.72272724
-0.47019848 0.2757895 1.3664597 0.73181814
-0.46280283 0.2740871 1.3580248 0.73636353
-0.45830959 0.2740871 1.3580248 0.73636353
-0.45381635 0.2740871 1.3580248 0.73636353
-0.44656649 0.27240556 1.3496933 0.74090904
-0.43940511 0.27074456 1.3414634 0.74545455
-0.42972609 0.26748255 1.3253012 0.75454545
-0.41779071 0.26273438 1.3017752 0.7681818
-0.41348359 0.26273438 1.3017752 0.7681818
-0.28955275 0.24531552 1.2154697 0.8227272
-0.28150961 0.24531552 1.2154697 0.8227272
-0.28216481 0.24945004 1.2359551 0.80909085
-0.27553406 0.25085938 1.2429379 0.8045454
-0.27191797 0.25518453 1.2643679 0.79090899
-0.26841441 0.27751318 1.3750001 0.72727269
-0.26720506 0.28102601 1.3924052 0.71818179
-0.16367058 0.26273438 1.3017752 0.7681818
-0.15881529 0.26910368 1.3333334 0.75
-0.16064076 0.30622146 1.5172415 0.65909088
-0.11835828 0.36099276 1.7886181 0.55909085
-0.11064132 0.35521686 1.76 0.56818181
-0.61939609 0.28031063 1.3664597 0.73181814
-0.61487496 0.28031063 1.3664597 0.73181814
-0.6058327 0.28031063 1.3664597 0.73181814
-0.61272883 0.285633 1.3924052 0.71818179
-0.60812187 0.285633 1.3924052 0.71818179
-0.59971917 0.28383657 1.3836479 0.72272724
-0.58774811 0.28031063 1.3664597 0.73181814
-0.5796268 0.27858034 1.3580248 0.73636353
-0.57160515 0.27687123 1.3496933 0.74090904
-0.5021612 0.285633 1.3924052 0.71818179
-0.49442497 0.28383657 1.3836479 0.72272724
-0.48984697 0.28383657 1.3836479 0.72272724
-0.48526895 0.28383657 1.3836479 0.72272724
-0.48069096 0.28383657 1.3836479 0.72272724
-0.47019848 0.28031063 1.3664597 0.73181814
-0.46280283 0.27858034 1.3580248 0.73636353
-0.45830959 0.27858034 1.3580248 0.73636353
-0.2724317 0.26391819 1.2865498 0.77727264
-0.26817495 0.26391819 1.2865498 0.77727264
-0.26391819 0.26391819 1.2865498 0.77727264
-0.19438331 0.25642052 1.2500001 0.79999995
-0.19024749 0.25642052 1.2500001 0.79999995
-0.18611167 0.25642052 1.2500001 0.79999995
-0.18094774 0.25497183 1.2429379 0.8045454
-0.16637792 0.25788578 1.2571429 0.7954545
-0.16504785 0.26238379 1.2790698 0.78181815
-0.16081586 0.26238379 1.2790698 0.78181815
-0.15658388 0.26238379 1.2790698 0.78181815
-0.15354212 0.35257819 1.71875 0.58181816
-0.14558068 0.34715393 1.6923077 0.59090906
-0.14216863 0.35257819 1.71875 0.58181816
-0.12510839 0.35257819 1.71875 0.58181816
-0.72277731 0.32294306 1.5492958 0.64545453
-0.62391722 0.28483179 1.3664597 0.73181814
-0.61939609 0.28483179 1.3664597 0.73181814
-0.61487496 0.28483179 1.3664597 0.73181814
-0.61035383 0.28483179 1.3664597 0.73181814
-0.6058327 0.28483179 1.3664597 0.73181814
-0.61272883 0.29023996 1.3924052 0.71818179
-0.58774811 0.28483179 1.3664597 0.73181814
-0.5796268 0.28307357 1.3580248 0.73636353
-0.52127278 0.29585752 1.4193549 0.70454544
-0.50676823 0.29023996 1.3924052 0.71818179
-0.5021612 0.29023996 1.3924052 0.71818179
-0.49442497 0.28841457 1.3836479 0.72272724
-0.48984697 0.28841457 1.3836479 0.72272724
-0.27553406 0.25908425 1.2429379 0.8045454
-0.27452356 0.26204523 1.2571429 0.7954545
-0.27507976 0.26661578 1.2790698 0.78181815
-0.2724317 0.26817495 1.2865498 0.77727264
-0.19024749 0.26055634 1.2500001 0.79999995
-0.18506019 0.25908425 1.2429379 0.8045454
-0.18094774 0.25908425 1.2429379 0.8045454
-0.17584184 0.25762874 1.2359551 0.80909085
-0.17079298 0.2561895 1.2290504 0.8136363
-0.16861039 0.25908425 1.2429379 0.8045454
-0.1654326 0.26055634 1.2500001 0.79999995
-0.14290129 0.2813369 1.3496933 0.74090904
-0.14761677 0.3206847 1.5384616 0.64999998
-0.61939609 0.28935292 1.3664597 0.73181814
-0.58774811 0.28935292 1.3664597 0.73181814
-0.56713945 0.28580257 1.3496933 0.74090904
-0.56267381 0.28580257 1.3496933 0.74090904
-0.53883755 0.30250531 1.4285715 0.69999999
-0.53411096 0.30250531 1.4285715 0.69999999
-0.52938432 0.30250531 1.4285715 0.69999999
-0.52127278 0.30055368 1.4193549 0.70454544
-0.49900299 0.29299259 1.3836479 0.72272724
-0.28150961 0.25738022 1.2154697 0.8227272
-0.28058848 0.26025599 1.2290504 0.8136363
-0.28284246 0.26620468 1.2571429 0.7954545
-0.28354377 0.27084777 1.2790698 0.78181815
-0.28094518 0.2724317 1.2865498 0.77727264
-0.27831602 0.27403423 1.2941177 0.77272725
-0.25563273 0.27729651 1.3095238 0.76363635
-0.21283726 0.2724317 1.2865498 0.77727264
-0.14393571 0.26319671 1.2429379 0.8045454
-0.13982326 0.26319671 1.2429379 0.8045454
-0.1364819 0.26469216 1.2500001 0.79999995
-0.14761677 0.32577494 1.5384616 0.64999998
-0.080878161 0.34508014 1.6296297 0.61363631
-0.07548628 0.34508014 1.6296297 0.61363631
-0.070094407 0.34508014 1.6296297 0.61363631
-0.68630892 0.27036414 1.2571429 0.7954545
-0.55502635 0.29571077 1.3750001 0.72727269
-0.53141415 0.29026824 1.3496933 0.74090904
-0.52373534 0.28849831 1.3414634 0.74545455
-0.52248281 0.29026824 1.3496933 0.74090904
-0.51801717 0.29026824 1.3496933 0.74090904
-0.52647102 0.29757059 1.3836479 0.72272724
-0.52189302 0.29757059 1.3836479 0.72272724
-0.51731503 0.29757059 1.3836479 0.72272724
-0.25966147 0.27668843 1.2865498 0.77727264
-0.16175632 0.26285401 1.2222223 0.81818175
-0.15366851 0.26285401 1.2222223 0.81818175
-0.14888935 0.26882797 1.2500001 0.79999995
-0.14475353 0.26882797 1.2500001 0.79999995
-0.14785537 0.36963844 1.71875 0.58181816
-0.14558068 0.37850976 1.76 0.56818181
-0.11835828 0.38466445 1.7886181 0.55909085
-0.11064132 0.37850976 1.76 0.56818181
-0.66690594 0.26838899 1.2290504 0.8136363
-0.56267381 0.29473388 1.3496933 0.74090904
-0.55820811 0.29473388 1.3496933 0.74090904
-0.55374247 0.29473388 1.3496933 0.74090904
-0.55502635 0.30026016 1.3750001 0.72727269
-0.54034549 0.29473388 1.3496933 0.74090904
-0.53261226 0.29293674 1.3414634 0.74545455
-0.52373534 0.29293674 1.3414634 0.74545455
-0.51485848 0.29293674 1.3414634 0.74545455
-0.51355147 0.29473388 1.3496933 0.74090904
-0.29948026 0.27452356 1.2571429 0.7954545
-0.2987349 0.27769724 1.2716763 0.78636366
-0.29623976 0.27931178 1.2790698 0.78181815
-0.29200774 0.27931178 1.2790698 0.78181815
-0.17793195 0.26689792 1.2222223 0.81818175
-0.17197719 0.26396501 1.2087914 0.82727259
-0.16705981 0.26252255 1.2021859 0.8318181
-0.16397826 0.26396501 1.2087914 0.82727259
-0.15366851 0.26689792 1.2222223 0.81818175
-0.1521606 0.27142161 1.2429379 0.8045454
-0.16418874 0.36121523 1.6541355 0.60454541
-0.16305035 0.38433298 1.76 0.56818181
-0.57160515 0.29919955 1.3496933 0.74090904
-0.56713945 0.29919955 1.3496933 0.74090904
-0.55250496 0.29379231 1.3253012 0.75454545
-0.34081024 0.28190479 1.2716763 0.78636366
-0.33855972 0.28354377 1.2790698 0.78181815
-0.33432773 0.28354377 1.2790698 0.78181815
-0.33164829 0.28857711 1.3017752 0.7681818
-0.32928962 0.2902948 1.3095238 0.76363635
-0.32113385 0.28687957 1.2941177 0.77272725
-0.31316775 0.28354377 1.2790698 0.78181815
-0.30893573 0.28354377 1.2790698 0.78181815
-0.21230516 0.2902948 1.3095238 0.76363635
-0.19410759 0.27094182 1.2222223 0.81818175
-0.19112548 0.27245548 1.2290504 0.8136363
-0.18917264 0.27553406 1.2429379 0.8045454
-0.18402053 0.27398613 1.2359551 0.80909085
-0.17892599 0.27245548 1.2290504 0.8136363
-0.17388804 0.27094182 1.2222223 0.81818175
-0.16797772 0.26796448 1.2087914 0.82727259
-0.16265999 0.27245548 1.2290504 0.8136363
-0.14388788 0.28354377 1.2790698 0.78181815
-0.1438372 0.29203311 1.3173653 0.7590909
-0.15954047 0.33403787 1.5068494 0.66363633
-0.14558068 0.39015621 1.76 0.56818181
-0.14202994 0.39650026 1.7886181 0.55909085
-0.13393421 0.39015621 1.76 0.56818181
-0.12811099 0.39015621 1.76 0.56818181
-0.1242762 0.39650026 1.7886181 0.55909085
-0.34922531 0.28611231 1.2716763 0.78636366
-0.3470237 0.28777575 1.2790698 0.78181815
-0.34081024 0.28611231 1.2716763 0.78636366
-0.33855972 0.28777575 1.2790698 0.78181815
-0.32541564 0.29116136 1.2941177 0.77272725
-0.32113385 0.29116136 1.2941177 0.77272725
-0.31135753 0.28611231 1.2716763 0.78636366
-0.2960963 0.27964652 1.2429379 0.8045454
-0.27553406 0.27964652 1.2429379 0.8045454
-0.27452356 0.28284246 1.2571429 0.7954545
-0.22530343 0.29462755 1.3095238 0.76363635
-0.217094 0.28945866 1.2865498 0.77727264
-0.21663791 0.29462755 1.3095238 0.76363635
-0.21230516 0.29462755 1.3095238 0.76363635
-0.19410759 0.27498573 1.2222223 0.81818175
-0.19328509 0.27964652 1.2429379 0.8045454
-0.19024749 0.28123543 1.2500001 0.79999995
-0.15302515 0.28123543 1.2500001 0.79999995
-0.14974013 0.28284246 1.2571429 0.7954545
-0.14475353 0.28123543 1.2500001 0.79999995
-0.15922886 0.38669866 1.71875 0.58181816
-0.15722713 0.39597943 1.76 0.56818181
-0.14785537 0.38669866 1.71875 0.58181816
-0.14216863 0.38669866 1.71875 0.58181816
-0.3536706 0.28375897 1.2429379 0.8045454
-0.35558501 0.28865138 1.2643679 0.79090899
-0.3575666 0.29371542 1.2865498 0.77727264
-0.35125571 0.29200774 1.2790698 0.78181815
-0.34905311 0.29371542 1.2865498 0.77727264
-0.29948026 0.28700191 1.2571429 0.7954545
-0.28058848 0.28058848 1.2290504 0.8136363
-0.2412238 0.29200774 1.2790698 0.78181815
-0.23699181 0.29200774 1.2790698 0.78181815
-0.22491398 0.28216481 1.2359551 0.80909085
-0.22333401 0.28537124 1.2500001 0.79999995
-0.2191982 0.28537124 1.2500001 0.79999995
-0.22006382 0.29200774 1.2790698 0.78181815
-0.217094 0.29371542 1.2865498 0.77727264
-0.21283726 0.29371542 1.2865498 0.77727264
-0.14213499 0.29719132 1.3017752 0.7681818
-0.14290129 0.30813089 1.3496933 0.74090904
-0.13843562 0.30813089 1.3496933 0.74090904
-0.15487307 0.35620806 1.5602838 0.64090908
-0.1529652 0.36395168 1.5942029 0.62727273
-0.3848685 0.29283473 1.2643679 0.79090899
-0.38068515 0.29283473 1.2643679 0.79090899
-0.3765018 0.29283473 1.2643679 0.79090899
-0.37459359 0.29797217 1.2865498 0.77727264
-0.37033683 0.29797217 1.2865498 0.77727264
-0.36608011 0.29797217 1.2865498 0.77727264
-0.36182335 0.29797217 1.2865498 0.77727264
-0.29443285 0.28625417 1.2359551 0.80909085
-0.24531552 0.28150961 1.2154697 0.8227272
-0.24129395 0.28150961 1.2154697 0.8227272
-0.23596871 0.27996287 1.2087914 0.82727259
-0.22944781 0.27691978 1.1956522 0.83636361
-0.22549182 0.27691978 1.1956522 0.83636361
-0.22153583 0.27691978 1.1956522 0.83636361
-0.21876879 0.278433 1.2021859 0.8318181
-0.21716456 0.28150961 1.2154697 0.8227272
-0.14721642 0.28625417 1.2359551 0.80909085
-0.14312708 0.28625417 1.2359551 0.80909085
-0.13903773 0.28625417 1.2359551 0.80909085
-0.40439081 0.3022289 1.2865498 0.77727264
-0.40013406 0.3022289 1.2865498 0.77727264
-0.3958773 0.3022289 1.2865498 0.77727264
-0.38511169 0.30047175 1.2790698 0.78181815
-0.38087967 0.30047175 1.2790698 0.78181815
-0.37885034 0.3022289 1.2865498 0.77727264
-0.37459359 0.3022289 1.2865498 0.77727264
-0.37694997 0.30762583 1.3095238 0.76363635
-0.31542483 0.28711748 1.2222223 0.81818175
-0.32398012 0.2987349 1.2716763 0.78636366
-0.27036414 0.29532081 1.2571429 0.7954545
-0.27084777 0.30047175 1.2790698 0.78181815
-0.26661578 0.30047175 1.2790698 0.78181815
-0.25788578 0.29532081 1.2571429 0.7954545
-0.24396765 0.28396234 1.2087914 0.82727259
-0.23996818 0.28396234 1.2087914 0.82727259
-0.19410759 0.28711748 1.2222223 0.81818175
-0.19219922 0.29034349 1.2359551 0.80909085
-0.19024749 0.29364288 1.2500001 0.79999995
-0.1635738 0.29034349 1.2359551 0.80909085
-0.15948446 0.29034349 1.2359551 0.80909085
-0.15452699 0.28872147 1.2290504 0.8136363
-0.1504605 0.28872147 1.2290504 0.8136363
-0.14639398 0.28872147 1.2290504 0.8136363
-0.42842314 0.29948026 1.2571429 0.7954545
-0.41473565 0.30470374 1.2790698 0.78181815
-0.40346646 0.29948026 1.2571429 0.7954545
-0.39930701 0.29948026 1.2571429 0.7954545
-0.39323521 0.30120143 1.2643679 0.79090899
-0.38087967 0.30470374 1.2790698 0.78181815
-0.36182335 0.30648565 1.2865498 0.77727264
-0.36179814 0.31011268 1.3017752 0.7681818
-0.35125571 0.30470374 1.2790698 0.78181815
-0.32125348 0.29278797 1.2290504 0.8136363
-0.31542483 0.29116139 1.2222223 0.81818175
-0.32398012 0.30294245 1.2716763 0.78636366
-0.30400673 0.30828851 1.2941177 0.77272725
-0.29116136 0.30828851 1.2941177 0.77272725
-0.28354377 0.30470374 1.2790698 0.78181815
-0.27931178 0.30470374 1.2790698 0.78181815
-0.27507976 0.30470374 1.2790698 0.78181815
-0.27729651 0.31195858 1.3095238 0.76363635
-0.20219541 0.29116139 1.2222223 0.81818175
-0.1981515 0.29116139 1.2222223 0.81818175
-0.17892599 0.29278797 1.2290504 0.8136363
-0.17388804 0.29116139 1.2222223 0.81818175
-0.16984414 0.29116139 1.2222223 0.81818175
-0.16580023 0.29116139 1.2222223 0.81818175
-0.16265999 0.29278797 1.2290504 0.8136363
-0.12676969 0.29443285 1.2359551 0.80909085
-0.12478344 0.29948026 1.2571429 0.7954545
-0.1249065 0.31011268 1.3017752 0.7681818
-0.12204368 0.31382662 1.3173653 0.7590909
-0.38582858 0.29036584 1.2021859 0.8318181
-0.39068264 0.30020875 1.2429379 0.8045454
-0.3848685 0.30538478 1.2643679 0.79090899
-0.37261721 0.31629136 1.3095238 0.76363635
-0.36182335 0.31074241 1.2865498 0.77727264
-0.35125571 0.30893573 1.2790698 0.78181815
-0.3470237 0.30893573 1.2790698 0.78181815
-0.34081024 0.30714998 1.2716763 0.78636366
-0.32899588 0.30020875 1.2429379 0.8045454
-0.31368214 0.2935743 1.2154697 0.8227272
-0.30966058 0.2935743 1.2154697 0.8227272
-0.31556505 0.30714998 1.2716763 0.78636366
-0.31316775 0.30893573 1.2790698 0.78181815
-0.30893573 0.30893573 1.2790698 0.78181815
-0.30470374 0.30893573 1.2790698 0.78181815
-0.27868301 0.30363971 1.2571429 0.7954545
-0.27452356 0.30363971 1.2571429 0.7954545
-0.21757983 0.28878778 1.1956522 0.83636361
-0.21479118 0.29036584 1.2021859 0.8318181
-0.21314299 0.2935743 1.2154697 0.8227272
-0.21028322 0.2952053 1.2222223 0.81818175
-0.20855659 0.29852217 1.2359551 0.80909085
-0.1981515 0.2952053 1.2222223 0.81818175
-0.19024749 0.30191451 1.2500001 0.79999995
-0.18402053 0.29852217 1.2359551 0.80909085
-0.17892599 0.29685447 1.2290504 0.8136363
-0.13344896 0.2952053 1.2222223 0.81818175
-0.12606148 0.29685447 1.2290504 0.8136363
-0.12407445 0.30191451 1.2500001 0.79999995
-0.12272789 0.30893573 1.2790698 0.78181815
-0.12059938 0.31441981 1.3017752 0.7681818
-0.11768498 0.31818533 1.3173653 0.7590909
-0.32531998 0.30092099 1.2290504 0.8136363
-0.30296522 0.29116139 1.1891893 0.840909
-0.28058848 0.30092099 1.2290504 0.8136363
-0.24956688 0.30779916 1.2571429 0.7954545
-0.24401309 0.3060503 1.2500001 0.79999995
-0.23196924 0.29596075 1.2087914 0.82727259
-0.22549182 0.29274377 1.1956522 0.83636361
-0.22153583 0.29274377 1.1956522 0.83636361
-0.21757983 0.29274377 1.1956522 0.83636361
-0.16175632 0.2992492 1.2222223 0.81818175
-0.15771241 0.2992492 1.2222223 0.81818175
-0.15197985 0.29596075 1.2087914 0.82727259
-0.13998143 0.29596075 1.2087914 0.82727259
-0.1237931 0.36642757 1.4965987 0.66818178
-0.12389845 0.38202024 1.5602838 0.64090908
-0.11873602 0.38202024 1.5602838 0.64090908
-0.11438482 0.38474894 1.5714287 0.63636363
-0.37885034 0.31925589 1.2865498 0.77727264
-0.37459359 0.31925589 1.2865498 0.77727264
-0.37694997 0.32495686 1.3095238 0.76363635
-0.36608011 0.31925589 1.2865498 0.77727264
-0.35764039 0.31556505 1.2716763 0.78636366
-0.3575666 0.31925589 1.2865498 0.77727264
-0.34922531 0.31556505 1.2716763 0.78636366
-0.30470374 0.31739974 1.2790698 0.78181815
-0.30047175 0.31739974 1.2790698 0.78181815
-0.27565575 0.32303405 1.3017752 0.7681818
-0.2670415 0.32303405 1.3017752 0.7681818
-0.25966147 0.31925589 1.2865498 0.77727264
-0.25391978 0.31739974 1.2790698 0.78181815
-0.23454666 0.30329311 1.2222223 0.81818175
-0.22549182 0.29669976 1.1956522 0.83636361
-0.18197586 0.30329311 1.2222223 0.81818175
-0.1769489 0.30161744 1.2154697 0.8227272
-0.17197719 0.29996023 1.2087914 0.82727259
-0.16797772 0.29996023 1.2087914 0.82727259
-0.12064698 0.30161744 1.2154697 0.8227272
-0.1123051 0.31195861 1.2571429 0.7954545
-0.1113264 0.32113385 1.2941177 0.77272725
-0.098786891 0.38994825 1.5714287 0.63636363
-0.45396128 0.29742292 1.1827958 0.84545451
-0.45493963 0.30065575 1.1956522 0.83636361
-0.45815095 0.32541564 1.2941177 0.77272725
-0.44599861 0.31977257 1.2716763 0.78636366
-0.4318071 0.3125461 1.2429379 0.8045454
-0.39741856 0.31793484 1.2643679 0.79090899
-0.38736382 0.32351264 1.2865498 0.77727264
-0.38310707 0.32351264 1.2865498 0.77727264
-0.38792455 0.33126143 1.3173653 0.7590909
-0.38356587 0.33126143 1.3173653 0.7590909
-0.37694997 0.32928962 1.3095238 0.76363635
-0.35764039 0.31977257 1.2716763 0.78636366
-0.30893573 0.32163173 1.2790698 0.78181815
-0.30470374 0.32163173 1.2790698 0.78181815
-0.29998443 0.33527672 1.3333334 0.75
-0.27452356 0.31611806 1.2571429 0.7954545
-0.27507976 0.32163173 1.2790698 0.78181815
-0.27565575 0.32734117 1.3017752 0.7681818
-0.27134863 0.32734117 1.3017752 0.7681818
-0.2670415 0.32734117 1.3017752 0.7681818
-0.24545579 0.32163173 1.2790698 0.78181815
-0.19628856 0.31079021 1.2359551 0.80909085
-0.19219922 0.31079021 1.2359551 0.80909085
-0.18810987 0.31079021 1.2359551 0.80909085
-0.18197586 0.30733702 1.2222223 0.81818175
-0.1769489 0.30563903 1.2154697 0.8227272
-0.13523889 0.30229869 1.2021859 0.8318181
-0.13126127 0.30229869 1.2021859 0.8318181
-0.12728366 0.30229869 1.2021859 0.8318181
-0.12398356 0.3039597 1.2087914 0.82727259
-0.50161219 0.29040706 1.1398964 0.87727273
-0.47527811 0.32969743 1.2941177 0.77272725
-0.47099632 0.32969743 1.2941177 0.77272725
-0.46947616 0.33164829 1.3017752 0.7681818
-0.46516904 0.33164829 1.3017752 0.7681818
-0.45815095 0.32969743 1.2941177 0.77272725
-0.44599861 0.32398012 1.2716763 0.78636366
-0.39479509 0.31665856 1.2429379 0.8045454
-0.39741856 0.32211819 1.2643679 0.79090899
-0.39323521 0.32211819 1.2643679 0.79090899
-0.3958773 0.32776937 1.2865498 0.77727264
-0.39162058 0.32776937 1.2865498 0.77727264
-0.38511169 0.32586372 1.2790698 0.78181815
-0.38087967 0.32586372 1.2790698 0.78181815
-0.31079021 0.31487957 1.2359551 0.80909085
-0.31499913 0.32776937 1.2865498 0.77727264
-0.22876965 0.32027751 1.2571429 0.7954545
-0.22461019 0.32027751 1.2571429 0.7954545
-0.22045074 0.32027751 1.2571429 0.7954545
-0.22530343 0.3336224 1.3095238 0.76363635
-0.22097068 0.3336224 1.3095238 0.76363635
-0.21663791 0.3336224 1.3095238 0.76363635
-0.21230516 0.3336224 1.3095238 0.76363635
-0.20797239 0.3336224 1.3095238 0.76363635
-0.20363964 0.3336224 1.3095238 0.76363635
-0.16397826 0.30795917 1.2087914 0.82727259
-0.14871146 0.30133635 1.1827958 0.84545451
-0.14637189 0.30461177 1.1956522 0.83636361
-0.14241588 0.30461177 1.1956522 0.83636361
-0.1392165 0.30627629 1.2021859 0.8318181
-0.1345039 0.30461177 1.1956522 0.83636361
-0.11604257 0.40614897 1.5942029 0.62727273
-0.067285188 0.47099635 1.8487396 0.54090905
-0.48384169 0.33397922 1.2941177 0.77272725
-0.47527811 0.33397922 1.2941177 0.77272725
-0.40301996 0.32077101 1.2429379 0.8045454
-0.39890751 0.32077101 1.2429379 0.8045454
-0.39930701 0.32443693 1.2571429 0.7954545
-0.40203968 0.33009571 1.2790698 0.78181815
-0.39780766 0.33009571 1.2790698 0.78181815
-0.3958773 0.33202612 1.2865498 0.77727264
-0.25129998 0.33795515 1.3095238 0.76363635
-0.24263446 0.33795515 1.3095238 0.76363635
-0.23689164 0.33595541 1.3017752 0.7681818
-0.22852781 0.33009571 1.2790698 0.78181815
-0.22328325 0.34832188 1.3496933 0.74090904
-0.11768498 0.33997884 1.3173653 0.7590909
-0.12906089 0.40266997 1.5602838 0.64090908
-0.12659189 0.41142365 1.5942029 0.62727273
-0.12044445 0.40846378 1.5827339 0.63181818
-0.10311966 0.47313723 1.8333335 0.5454545
-0.090987928 0.47313723 1.8333335 0.5454545
-0.084922068 0.47313723 1.8333335 0.5454545
-0.078856207 0.47313723 1.8333335 0.5454545
-0.072790347 0.47313723 1.8333335 0.5454545
-0.067285188 0.47711319 1.8487396 0.54090905
0.25756583 0.29116136 1.1282052 0.88636357
-0.5250451 0.31423154 1.2021859 0.8318181
-0.51543432 0.31083444 1.1891893 0.840909
-0.50602913 0.30750999 1.1764706 0.84999996
-0.45889562 0.31252375 1.1956522 0.83636361
-0.47293159 0.32488346 1.2429379 0.8045454
-0.48812345 0.33826101 1.2941177 0.77272725
-0.48384169 0.33826101 1.2941177 0.77272725
-0.47378328 0.34026253 1.3017752 0.7681818
-0.41771731 0.32672939 1.2500001 0.79999995
-0.41594481 0.32859638 1.2571429 0.7954545
-0.39594749 0.31595811 1.2087914 0.82727259
-0.39194801 0.31595811 1.2087914 0.82727259
-0.40117407 0.32672939 1.2500001 0.79999995
-0.29288423 0.34026253 1.3017752 0.7681818
-0.28354377 0.33432773 1.2790698 0.78181815
-0.27769724 0.3323952 1.2716763 0.78636366
-0.27507976 0.33432773 1.2790698 0.78181815
-0.27084777 0.33432773 1.2790698 0.78181815
-0.26204523 0.32859638 1.2571429 0.7954545
-0.24956688 0.32859638 1.2571429 0.7954545
-0.2329291 0.32859638 1.2571429 0.7954545
-0.18197586 0.31946874 1.2222223 0.81818175
-0.12478344 0.32859638 1.2571429 0.7954545
-0.12417176 0.33826101 1.2941177 0.77272725
-0.12204368 0.34433752 1.3173653 0.7590909
-0.1039862 0.43236369 1.6541355 0.60454541
-0.10918552 0.4792031 1.8333335 0.5454545
-0.10311966 0.4792031 1.8333335 0.5454545
-0.097053796 0.4792031 1.8333335 0.5454545
0.20903893 0.29489419 1.1282052 0.88636357
0.253833 0.29489419 1.1282052 0.88636357
-0.50756514 0.31476906 1.1891893 0.840909
-0.50363052 0.31476906 1.1891893 0.840909
-0.49435151 0.31140253 1.1764706 0.84999996
-0.490459 0.31140253 1.1764706 0.84999996
-0.48141763 0.30810729 1.1640213 0.85909086
-0.47756627 0.30810729 1.1640213 0.85909086
-0.4787814 0.31140253 1.1764706 0.84999996
-0.47744203 0.31307673 1.1827958 0.84545451
-0.46178818 0.31307673 1.1827958 0.84545451
-0.50096881 0.34254277 1.2941177 0.77272725
-0.49668702 0.34254277 1.2941177 0.77272725
-0.46360514 0.34662065 1.3095238 0.76363635
-0.45386919 0.34254277 1.2941177 0.77272725
-0.43012476 0.3308652 1.2500001 0.79999995
-0.42598894 0.3308652 1.2500001 0.79999995
-0.42185313 0.3308652 1.2500001 0.79999995
-0.42010427 0.33275583 1.2571429 0.7954545
-0.42075339 0.33660272 1.2716763 0.78636366
-0.35154429 0.3308652 1.2500001 0.79999995
-0.29425883 0.30974615 1.1702129 0.85454535
-0.30538478 0.33466825 1.2643679 0.79090899
-0.30120143 0.33466825 1.2643679 0.79090899
-0.29701808 0.33466825 1.2643679 0.79090899
-0.29283473 0.33466825 1.2643679 0.79090899
-0.28865138 0.33466825 1.2643679 0.79090899
-0.28777575 0.33855972 1.2790698 0.78181815
-0.27296379 0.3308652 1.2500001 0.79999995
-0.21629129 0.33275583 1.2571429 0.7954545
-0.21583182 0.33855972 1.2790698 0.78181815
-0.13198251 0.31995758 1.2087914 0.82727259
-0.12568116 0.41893721 1.5827339 0.63181818
-0.12044445 0.41893721 1.5827339 0.63181818
-0.11604257 0.42197296 1.5942029 0.62727273
-0.11322942 0.43135017 1.6296297 0.61363631
-0.10945916 0.43783665 1.6541355 0.60454541
0.20683594 0.31820914 1.2021859 0.8318181
0.23143595 0.29862705 1.1282052 0.88636357
0.47019848 0.36169115 1.3664597 0.73181814
0.47471964 0.36169115 1.3664597 0.73181814
0.47924078 0.36169115 1.3664597 0.73181814
-0.49435151 0.31529507 1.1764706 0.84999996
-0.48141763 0.31195861 1.1640213 0.85909086
-0.47756627 0.31195861 1.1640213 0.85909086
-0.4787814 0.31529507 1.1764706 0.84999996
-0.47744203 0.3169902 1.1827958 0.84545451
-0.47352856 0.3169902 1.1827958 0.84545451
-0.47471961 0.32043573 1.1956522 0.83636361
-0.46570164 0.3169902 1.1827958 0.84545451
-0.46178818 0.3169902 1.1827958 0.84545451
-0.50096881 0.34682456 1.2941177 0.77272725
-0.49668702 0.34682456 1.2941177 0.77272725
-0.49240524 0.34682456 1.2941177 0.77272725
-0.4928042 0.36621228 1.3664597 0.73181814
-0.50072336 0.37554252 1.401274 0.71363634
-0.46360514 0.35095343 1.3095238 0.76363635
-0.45386919 0.34682456 1.2941177 0.77272725
-0.43426058 0.33500102 1.2500001 0.79999995
-0.43012476 0.33500102 1.2500001 0.79999995
-0.29571077 0.30708426 1.1458334 0.87272722
-0.29655325 0.31195861 1.1640213 0.85909086
-0.29425883 0.31361797 1.1702129 0.85454535
-0.29509601 0.31870368 1.1891893 0.840909
-0.22397031 0.32395706 1.2087914 0.82727259
-0.22491398 0.33123696 1.2359551 0.80909085
-0.22082463 0.33123696 1.2359551 0.80909085
-0.14398091 0.32395706 1.2087914 0.82727259
-0.13998143 0.32395706 1.2087914 0.82727259
-0.12259427 0.31031674 1.1578948 0.86363626
-0.11560819 0.34682456 1.2941177 0.77272725
-0.11332627 0.35305494 1.3173653 0.7590909
0.44759279 0.36621228 1.3664597 0.73181814
0.45211393 0.36621228 1.3664597 0.73181814
0.45663509 0.36621228 1.3664597 0.73181814
-0.53697795 0.32616436 1.2021859 0.8318181
-0.5417918 0.33913684 1.2500001 0.79999995
-0.53765595 0.33913684 1.2500001 0.79999995
-0.50756514 0.3226383 1.1891893 0.840909
-0.50363052 0.3226383 1.1891893 0.840909
-0.4996959 0.3226383 1.1891893 0.840909
-0.49668702 0.35110635 1.2941177 0.77272725
-0.49393445 0.35528618 1.3095238 0.76363635
-0.50636762 0.37073344 1.3664597 0.73181814
-0.50184649 0.37073344 1.3664597 0.73181814
-0.49732533 0.37073344 1.3664597 0.73181814
-0.4928042 0.37073344 1.3664597 0.73181814
-0.50072336 0.38017887 1.401274 0.71363634
-0.30329308 0.31087542 1.1458334 0.87272722
-0.2927019 0.31580997 1.1640213 0.85909086
-0.25762874 0.33532628 1.2359551 0.80909085
-0.2452718 0.32439175 1.1956522 0.83636361
-0.24131581 0.32439175 1.1956522 0.83636361
-0.2010783 0.32976842 1.2154697 0.8227272
-0.1981515 0.33160046 1.2222223 0.81818175
-0.1495153 0.3226383 1.1891893 0.840909
-0.14637189 0.32439175 1.1956522 0.83636361
-0.12446017 0.30926466 1.1398964 0.87727273
-0.11998409 0.32795653 1.2087914 0.82727259
-0.11792849 0.33345297 1.2290504 0.8136363
-0.078856207 0.4974007 1.8333335 0.5454545
-0.57163036 0.34133324 1.2429379 0.8045454
-0.52868778 0.31797889 1.1578948 0.86363626
-0.52485669 0.31797889 1.1578948 0.86363626
-0.55419922 0.34327266 1.2500001 0.79999995
-0.5797075 0.36177236 1.3173653 0.7590909
-0.54592758 0.34327266 1.2500001 0.79999995
-0.5357042 0.33941564 1.2359551 0.80909085
-0.50636762 0.37525457 1.3664597 0.73181814
-0.50184649 0.37525457 1.3664597 0.73181814
-0.26055634 0.34327266 1.2500001 0.79999995
-0.21716456 0.33378997 1.2154697 0.8227272
-0.21197189 0.33195597 1.2087914 0.82727259
-0.20571184 0.32834774 1.1956522 0.83636361
-0.19303517 0.33378997 1.2154697 0.8227272
-0.16131915 0.3265729 1.1891893 0.840909
-0.15653837 0.32481712 1.1827958 0.84545451
-0.15262491 0.32481712 1.1827958 0.84545451
-0.144798 0.32481712 1.1827958 0.84545451
-0.12957443 0.31631407 1.1518326 0.86818171
-0.12381862 0.31142259 1.1340207 0.88181812
-0.12131724 0.31466657 1.1458334 0.87272722
-0.10460887 0.36177236 1.3173653 0.7590909
-0.10025017 0.36177236 1.3173653 0.7590909
-0.11277376 0.42546466 1.5492958 0.64545453
-0.1039862 0.43154275 1.5714287 0.63636363
-0.1039862 0.45425552 1.6541355 0.60454541
0.83938408 0.5442881 1.981982 0.50454545
-0.64752144 0.37511587 1.3496933 0.74090904
-0.66340566 0.38698664 1.3924052 0.71818179
-0.62905234 0.37743142 1.3580248 0.73636353
-0.54095554 0.33411962 1.2021859 0.8318181
-0.55518055 0.34544569 1.2429379 0.8045454
-0.55419922 0.34740847 1.2500001 0.79999995
-0.5797075 0.36613104 1.3173653 0.7590909
-0.48267391 0.32697266 1.1764706 0.84999996
-0.4787814 0.32697266 1.1764706 0.84999996
-0.47744203 0.32873058 1.1827958 0.84545451
-0.40013406 0.3575666 1.2865498 0.77727264
-0.29852217 0.343505 1.2359551 0.80909085
-0.30120143 0.35140166 1.2643679 0.79090899
-0.2987349 0.35343286 1.2716763 0.78636366
-0.30149844 0.36179814 1.3017752 0.7681818
-0.30553973 0.37743142 1.3580248 0.73636353
-0.30104649 0.37743142 1.3580248 0.73636353
-0.29655325 0.37743142 1.3580248 0.73636353
-0.23852202 0.34544569 1.2429379 0.8045454
-0.23309267 0.343505 1.2359551 0.80909085
-0.22397031 0.33595544 1.2087914 0.82727259
-0.21997084 0.33595544 1.2087914 0.82727259
-0.21362384 0.33230373 1.1956522 0.83636361
-0.20966783 0.33230373 1.1956522 0.83636361
-0.20349988 0.32873058 1.1827958 0.84545451
-0.16560766 0.32351264 1.1640213 0.85909086
-0.16175632 0.32351264 1.1640213 0.85909086
-0.15959379 0.32697266 1.1764706 0.84999996
-0.1097955 0.34158596 1.2290504 0.8136363
-0.10753119 0.34740847 1.2500001 0.79999995
-0.10025017 0.36613104 1.3173653 0.7590909
0.16261673 0.32523346 1.1702129 0.85454535
-0.5992133 0.34183311 1.2154697 0.8227272
-0.6086424 0.34955814 1.2429379 0.8045454
-0.59117019 0.34183311 1.2154697 0.8227272
-0.60041749 0.34955814 1.2429379 0.8045454
-0.53510743 0.33444214 1.1891893 0.840909
-0.53161484 0.34759432 1.2359551 0.80909085
-0.50756514 0.33444214 1.1891893 0.840909
-0.50363052 0.33444214 1.1891893 0.840909
-0.49435151 0.33086517 1.1764706 0.84999996
-0.490459 0.33086517 1.1764706 0.84999996
-0.39994696 0.33995491 1.2087914 0.82727259
-0.38536063 0.33086517 1.1764706 0.84999996
-0.37544495 0.32564101 1.1578948 0.86363626
-0.37757558 0.33086517 1.1764706 0.84999996
-0.36187199 0.35355309 1.2571429 0.7954545
-0.30133635 0.33264405 1.1827958 0.84545451
-0.30065575 0.33625972 1.1956522 0.83636361
-0.30161744 0.34183311 1.2154697 0.8227272
-0.30261153 0.34759432 1.2359551 0.80909085
-0.30714998 0.35764039 1.2716763 0.78636366
-0.30648565 0.36182335 1.2865498 0.77727264
-0.30580556 0.36610526 1.3017752 0.7681818
-0.25842726 0.36610526 1.3017752 0.7681818
-0.25262529 0.36395171 1.2941177 0.77272725
-0.24124798 0.35355309 1.2571429 0.7954545
-0.23708853 0.35355309 1.2571429 0.7954545
-0.2329291 0.35355309 1.2571429 0.7954545
-0.19384384 0.33625972 1.1956522 0.83636361
-0.19303517 0.34183311 1.2154697 0.8227272
-0.17997614 0.33995491 1.2087914 0.82727259
-0.17312299 0.33444214 1.1891893 0.840909
-0.16737886 0.33086517 1.1764706 0.84999996
-0.16348633 0.33086517 1.1764706 0.84999996
-0.1275707 0.31892675 1.1340207 0.88181812
-0.12381862 0.31892675 1.1340207 0.88181812
-0.60725647 0.34585467 1.2154697 0.8227272
-0.60323489 0.34585467 1.2154697 0.8227272
-0.5992133 0.34585467 1.2154697 0.8227272
-0.59519178 0.34585467 1.2154697 0.8227272
-0.59117019 0.34585467 1.2154697 0.8227272
-0.60041749 0.3536706 1.2429379 0.8045454
-0.63354558 0.3864179 1.3580248 0.73636353
-0.55006343 0.35568011 1.2500001 0.79999995
-0.50363052 0.33837673 1.1891893 0.840909
-0.51126546 0.37261721 1.3095238 0.76363635
-0.41594484 0.34395438 1.2087914 0.82727259
-0.32090366 0.33655751 1.1827958 0.84545451
-0.31870368 0.33837673 1.1891893 0.840909
-0.31476906 0.33837673 1.1891893 0.840909
-0.31083444 0.33837673 1.1891893 0.840909
-0.30689985 0.33837673 1.1891893 0.840909
-0.30296522 0.33837673 1.1891893 0.840909
-0.30065575 0.34021574 1.1956522 0.83636361
-0.29206002 0.3864179 1.3580248 0.73636353
-0.28307357 0.3864179 1.3580248 0.73636353
-0.21028322 0.34777609 1.2222223 0.81818175
-0.20219541 0.34777609 1.2222223 0.81818175
-0.18499203 0.34585467 1.2154697 0.8227272
-0.18097048 0.34585467 1.2154697 0.8227272
-0.14558069 0.32947209 1.1578948 0.86363626
-0.14174962 0.32947209 1.1578948 0.86363626
-0.13791855 0.32947209 1.1578948 0.86363626
-0.11386199 0.34971899 1.2290504 0.8136363
0.24636731 0.32102406 1.1282052 0.88636357
0.25010014 0.32102406 1.1282052 0.88636357
-0.60922354 0.34417173 1.1956522 0.83636361
-0.61529958 0.34987625 1.2154697 0.8227272
-0.6013115 0.34417173 1.1956522 0.83636361
-0.59735554 0.34417173 1.1956522 0.83636361
-0.54493314 0.34605244 1.2021859 0.8318181
-0.55929303 0.35778305 1.2429379 0.8045454
-0.55833501 0.3598159 1.2500001 0.79999995
-0.53292924 0.37694997 1.3095238 0.76363635
-0.52426374 0.37694997 1.3095238 0.76363635
-0.49393445 0.37694997 1.3095238 0.76363635
-0.48670465 0.3747195 1.3017752 0.7681818
-0.48239753 0.3747195 1.3017752 0.7681818
-0.33411962 0.34605244 1.2021859 0.8318181
-0.3265729 0.34231135 1.1891893 0.840909
-0.3226383 0.34231135 1.1891893 0.840909
-0.31870368 0.34231135 1.1891893 0.840909
-0.31476906 0.34231135 1.1891893 0.840909
-0.30625203 0.38614386 1.3414634 0.74545455
-0.29737517 0.38614386 1.3414634 0.74545455
-0.28426999 0.3747195 1.3017752 0.7681818
-0.26975244 0.37251526 1.2941177 0.77272725
-0.20797242 0.34795386 1.2087914 0.82727259
-0.20623931 0.35181999 1.2222223 0.81818175
-0.15020229 0.33506665 1.1640213 0.85909086
-0.14558069 0.33330315 1.1578948 0.86363626
-0.14088453 0.34047094 1.1827958 0.84545451
-0.10579991 0.3681837 1.2790698 0.78181815
-0.10460887 0.37920716 1.3173653 0.7590909
0.85905713 0.57051885 1.981982 0.50454545
-0.61529958 0.35389781 1.2154697 0.8227272
-0.57487828 0.36395171 1.2500001 0.79999995
-0.5489108 0.35003006 1.2021859 0.8318181
-0.54493314 0.35003006 1.2021859 0.8318181
-0.55929303 0.36189547 1.2429379 0.8045454
-0.33809721 0.35003006 1.2021859 0.8318181
-0.3226383 0.34624597 1.1891893 0.840909
-0.2992492 0.3558639 1.2222223 0.81818175
-0.21997084 0.35195333 1.2087914 0.82727259
-0.18499203 0.35389781 1.2154697 0.8227272
-0.18097048 0.35389781 1.2154697 0.8227272
-0.17597666 0.35195333 1.2087914 0.82727259
-0.16918837 0.34624597 1.1891893 0.840909
-0.16436529 0.3443844 1.1827958 0.84545451
0.21070889 0.33713424 1.1578948 0.86363626
0.84594178 0.57707655 1.981982 0.50454545
0.85905713 0.57707655 1.981982 0.50454545
-0.59282857 0.33393508 1.1340207 0.88181812
-0.64752144 0.39744419 1.3496933 0.74090904
-0.65879869 0.41002154 1.3924052 0.71818179
-0.68001503 0.42620662 1.4473685 0.69090903
-0.64958471 0.41002154 1.3924052 0.71818179
-0.64497775 0.41002154 1.3924052 0.71818179
-0.39290243 0.36808753 1.2500001 0.79999995
-0.39098811 0.37019089 1.2571429 0.7954545
-0.38682866 0.37019089 1.2571429 0.7954545
-0.34777609 0.35990781 1.2222223 0.81818175
-0.30795917 0.3559528 1.2087914 0.82727259
-0.20571184 0.35208371 1.1956522 0.83636361
-0.19779985 0.35208371 1.1956522 0.83636361
-0.1981515 0.35990781 1.2222223 0.81818175
-0.19410759 0.35990781 1.2222223 0.81818175
-0.19328509 0.36600792 1.2429379 0.8045454
-0.18499203 0.35791937 1.2154697 0.8227272
-0.18097048 0.35791937 1.2154697 0.8227272
-0.17597666 0.3559528 1.2087914 0.82727259
0.21453996 0.3409653 1.1578948 0.86363626
0.81315333 0.58363426 1.981982 0.50454545
0.82626873 0.58363426 1.981982 0.50454545
-0.67191082 0.38764086 1.3017752 0.7681818
-0.68795747 0.39945918 1.3414634 0.74545455
-0.66801262 0.41462854 1.3924052 0.71818179
-0.6848039 0.43099543 1.4473685 0.69090903
-0.79119933 0.56966352 1.9130435 0.52272725
-0.40351167 0.35603973 1.1956522 0.83636361
-0.39314568 0.35032785 1.1764706 0.84999996
-0.39994696 0.35995227 1.2087914 0.82727259
-0.39594749 0.35995227 1.2087914 0.82727259
-0.40530989 0.37222335 1.2500001 0.79999995
-0.36603144 0.37435031 1.2571429 0.7954545
-0.34585467 0.36194095 1.2154697 0.8227272
-0.33809721 0.35798529 1.2021859 0.8318181
-0.31423154 0.35798529 1.2021859 0.8318181
-0.22698064 0.35221133 1.1827958 0.84545451
-0.22306718 0.35221133 1.1827958 0.84545451
-0.21915372 0.35221133 1.1827958 0.84545451
-0.20741335 0.35221133 1.1827958 0.84545451
-0.20349988 0.35221133 1.1827958 0.84545451
0.19359134 0.3484644 1.1702129 0.85454535
0.20520683 0.3484644 1.1702129 0.85454535
0.44526008 0.3484644 1.1702129 0.85454535
-0.56340545 0.37423283 1.2429379 0.8045454
-0.55929303 0.37423283 1.2429379 0.8045454
-0.80385852 0.57599312 1.9130435 0.52272725
-0.48675749 0.40637553 1.3496933 0.74090904
-0.48229182 0.40637553 1.3496933 0.74090904
-0.46919072 0.39903137 1.3253012 0.75454545
-0.43839639 0.37635916 1.2500001 0.79999995
-0.41994432 0.36395174 1.2087914 0.82727259
-0.41594484 0.36395174 1.2087914 0.82727259
-0.40746766 0.35999572 1.1956522 0.83636361
-0.35986236 0.37213039 1.2359551 0.80909085
-0.34605244 0.36196291 1.2021859 0.8318181
-0.31025392 0.36196291 1.2021859 0.8318181
-0.3018136 0.40389761 1.3414634 0.74545455
-0.28857711 0.39194798 1.3017752 0.7681818
-0.27831602 0.38964242 1.2941177 0.77272725
-0.25762874 0.37213039 1.2359551 0.80909085
-0.24796712 0.36395174 1.2087914 0.82727259
-0.22965936 0.35422039 1.1764706 0.84999996
-0.22576684 0.35422039 1.1764706 0.84999996
-0.2101967 0.35422039 1.1764706 0.84999996
-0.20630418 0.35422039 1.1764706 0.84999996
0.18197586 0.35233623 1.1702129 0.85454535
0.36395171 0.33795515 1.122449 0.89090902
0.40565449 0.34499589 1.1458334 0.87272722
0.40944567 0.34499589 1.1458334 0.87272722
0.41323683 0.34499589 1.1458334 0.87272722
0.41702798 0.34499589 1.1458334 0.87272722
0.42081916 0.34499589 1.1458334 0.87272722
0.42461032 0.34499589 1.1458334 0.87272722
0.43219265 0.34499589 1.1458334 0.87272722
-0.66967112 0.38266921 1.2571429 0.7954545
-0.66091841 0.4108412 1.3496933 0.74090904
-0.30065575 0.36395171 1.1956522 0.83636361
-0.29443285 0.37621975 1.2359551 0.80909085
-0.28611231 0.38709313 1.2716763 0.78636366
-0.28028467 0.3848685 1.2643679 0.79090899
-0.26989678 0.37621975 1.2359551 0.80909085
-0.1721922 0.36003825 1.1827958 0.84545451
0.13419449 0.37411797 1.2290504 0.8136363
0.41041365 0.35620806 1.1702129 0.85454535
0.40565449 0.34878704 1.1458334 0.87272722
-0.63745385 0.40056223 1.3017752 0.7681818
-0.62843835 0.42046595 1.3664597 0.73181814
-0.72790343 0.55487722 1.8032788 0.5545454
-0.721937 0.55487722 1.8032788 0.5545454
-0.71597058 0.55487722 1.8032788 0.5545454
-0.71000415 0.55487722 1.8032788 0.5545454
-0.67103595 0.5288673 1.71875 0.58181816
-0.66534919 0.5288673 1.71875 0.58181816
-0.30065575 0.3679077 1.1956522 0.83636361
-0.18393259 0.36395171 1.1827958 0.84545451
-0.12062399 0.38682866 1.2571429 0.7954545
-0.11646455 0.38682866 1.2571429 0.7954545
-0.1123051 0.38682866 1.2571429 0.7954545
-0.1039862 0.38682866 1.2571429 0.7954545
0.1504605 0.37818447 1.2290504 0.8136363
-0.60658622 0.38012734 1.2222223 0.81818175
-0.60254228 0.38012734 1.2222223 0.81818175
-0.75176913 0.56084365 1.8032788 0.5545454
-0.78486973 0.59498191 1.9130435 0.52272725
-0.72790343 0.56084365 1.8032788 0.5545454
-0.47644585 0.41468436 1.3333334 0.75
-0.46919072 0.41218624 1.3253012 0.75454545
-0.43839639 0.38876662 1.2500001 0.79999995
-0.32574683 0.3780272 1.2154697 0.8227272
-0.32172528 0.3780272 1.2154697 0.8227272
-0.31423154 0.37389573 1.2021859 0.8318181
-0.30733702 0.38012734 1.2222223 0.81818175
-0.30670089 0.38439843 1.2359551 0.80909085
-0.25497183 0.38657019 1.2429379 0.8045454
-0.25085938 0.38657019 1.2429379 0.8045454
-0.23355189 0.36589798 1.1764706 0.84999996
-0.22965936 0.36589798 1.1764706 0.84999996
-0.2218743 0.36589798 1.1764706 0.84999996
-0.21798177 0.36589798 1.1764706 0.84999996
-0.21408924 0.36589798 1.1764706 0.84999996
0.11386199 0.38225096 1.2290504 0.8136363
0.12606148 0.38225096 1.2290504 0.8136363
0.13419449 0.38225096 1.2290504 0.8136363
0.13826099 0.38225096 1.2290504 0.8136363
-0.61379969 0.37378827 1.1891893 0.840909
-0.62680572 0.38417125 1.2222223 0.81818175
-0.61810797 0.38631746 1.2290504 0.8136363
-0.47796065 0.4165712 1.3253012 0.75454545
-0.47357568 0.4165712 1.3253012 0.75454545
-0.34207484 0.37787336 1.2021859 0.8318181
-0.33564436 0.38417125 1.2222223 0.81818175
-0.32755655 0.38417125 1.2222223 0.81818175
-0.32351264 0.38417125 1.2222223 0.81818175
-0.17793195 0.38417125 1.2222223 0.81818175
0.201335 0.36782354 1.1702129 0.85454535
-0.62883961 0.41348359 1.3017752 0.7681818
-0.58964247 0.39038396 1.2290504 0.8136363
-0.67624575 0.45083052 1.4193549 0.70454544
-0.6848039 0.45972848 1.4473685 0.69090903
-0.65128201 0.45972848 1.4473685 0.69090903
-0.67103595 0.54592752 1.71875 0.58181816
-0.65511304 0.53752863 1.6923077 0.59090906
-0.39994696 0.3839491 1.2087914 0.82727259
-0.4094457 0.39703825 1.2500001 0.79999995
-0.37608343 0.38821518 1.2222223 0.81818175
-0.38266921 0.39930701 1.2571429 0.7954545
-0.33411962 0.38185099 1.2021859 0.8318181
-0.59792066 0.36023793 1.122449 0.89090902
-0.61297131 0.37161386 1.1578948 0.86363626
-0.61236322 0.37358007 1.1640213 0.85909086
-0.641761 0.41779071 1.3017752 0.7681818
-0.6733107 0.44129145 1.3750001 0.72727269
-0.6772266 0.44687742 1.3924052 0.71818179
-0.68563807 0.45552665 1.4193549 0.70454544
-0.87488383 0.6789099 2.1153846 0.47272727
-0.86788476 0.6789099 2.1153846 0.47272727
-0.86088574 0.6789099 2.1153846 0.47272727
-0.35986236 0.39666647 1.2359551 0.80909085
0.36886996 0.47707182 1.4864866 0.67272723
-0.62020344 0.36395171 1.122449 0.89090902
-0.60906202 0.36395171 1.122449 0.89090902
-0.60534823 0.36395171 1.122449 0.89090902
-0.60163444 0.36395171 1.122449 0.89090902
-0.61037731 0.37153402 1.1458334 0.87272722
-0.63639557 0.40762591 1.2571429 0.7954545
-0.65468234 0.42209783 1.3017752 0.7681818
-0.67020375 0.43496665 1.3414634 0.74545455
-0.68240947 0.44584087 1.3750001 0.72727269
-0.67786008 0.44584087 1.3750001 0.72727269
0.03412047 0.55730104 1.71875 0.58181816
0.12199499 0.39851698 1.2290504 0.8136363
0.12606148 0.39851698 1.2290504 0.8136363
0.28028467 0.40996861 1.2643679 0.79090899
0.31452617 0.44033664 1.3580248 0.73636353
0.31901941 0.44033664 1.3580248 0.73636353
0.32755655 0.44584087 1.3750001 0.72727269
0.33210593 0.44584087 1.3750001 0.72727269
0.36395171 0.4819901 1.4864866 0.67272723
-0.61277586 0.3676655 1.122449 0.89090902
-0.60534823 0.3676655 1.122449 0.89090902
-0.63437396 0.40258348 1.2290504 0.8136363
-0.63030744 0.40258348 1.2290504 0.8136363
-0.64055502 0.41178536 1.2571429 0.7954545
-0.63639557 0.41178536 1.2571429 0.7954545
0 0.56298774 1.71875 0.58181816
0.005686745 0.56298774 1.71875 0.58181816
0.01137349 0.56298774 1.71875 0.58181816
0.02274698 0.56298774 1.71875 0.58181816
0.11569326 0.47723472 1.4569538 0.68636358
0.12051381 0.47723472 1.4569538 0.68636358
0.27769724 0.41654587 1.2716763 0.78636366
0.2902948 0.42894307 1.3095238 0.76363635
-0.62444508 0.36949411 1.1167513 0.89545453
-0.62391722 0.37137929 1.122449 0.89090902
-0.61648965 0.37137929 1.122449 0.89090902
-0.59792066 0.37137929 1.122449 0.89090902
-0.61297131 0.38310707 1.1578948 0.86363626
-0.61236322 0.3851341 1.1640213 0.85909086
-0.60851187 0.3851341 1.1640213 0.85909086
-0.61773431 0.39346132 1.1891893 0.840909
-0.63084966 0.40439081 1.2222223 0.81818175
-0.33475772 0.38925317 1.1764706 0.84999996
-0.32351264 0.3851341 1.1640213 0.85909086
-0.016418874 0.54729581 1.6541355 0.60454541
0.065380543 0.43587029 1.3173653 0.7590909
0.1012316 0.48205525 1.4569538 0.68636358
0.10605216 0.48205525 1.4569538 0.68636358
0.40141732 0.53522307 1.6176471 0.61818182
-0.60597032 0.37318906 1.1167513 0.89545453
-0.60163444 0.3750931 1.122449 0.89090902
-0.59792066 0.3750931 1.122449 0.89090902
-0.61297131 0.38693815 1.1578948 0.86363626
-0.61236322 0.38898543 1.1640213 0.85909086
-0.33121532 0.38898543 1.1640213 0.85909086
-0.2360768 0.39739594 1.1891893 0.840909
-0.093745135 0.55695641 1.6666667 0.59999996
-0.021891832 0.55276877 1.6541355 0.60454541
0.04766034 0.43760857 1.3095238 0.76363635
0.056325857 0.43760857 1.3095238 0.76363635
0.069739245 0.440229 1.3173653 0.7590909
0.080878161 0.48051143 1.4379086 0.69545448
0.15840384 0.38092354 1.1398964 0.87727273
0.32300717 0.45948905 1.3750001 0.72727269
0.35411519 0.4967449 1.4864866 0.67272723
0.35903344 0.4967449 1.4864866 0.67272723
-0.62496758 0.37498054 1.1111112 0.89999998
-0.62129128 0.37498054 1.1111112 0.89999998
-0.62075013 0.37688401 1.1167513 0.89545453
-0.61393875 0.37498054 1.1111112 0.89999998
-0.61026245 0.37498054 1.1111112 0.89999998
-0.60658616 0.37498054 1.1111112 0.89999998
-0.60227543 0.37688401 1.1167513 0.89545453
-0.30329308 0.38669869 1.1458334 0.87272722
-0.26817495 0.43418801 1.2865498 0.77727264
-0.26391819 0.43418801 1.2865498 0.77727264
-0.077201881 0.56247079 1.6666667 0.59999996
0.29462755 0.44194135 1.3095238 0.76363635
-0.62496758 0.37865683 1.1111112 0.89999998
-0.62129128 0.37865683 1.1111112 0.89999998
-0.61761504 0.37865683 1.1111112 0.89999998
-0.37161386 0.3946003 1.1578948 0.86363626
-0.25181526 0.40526518 1.1891893 0.840909
-0.24788064 0.40526518 1.1891893 0.840909
-0.088230714 0.56798524 1.6666667 0.59999996
-0.060202539 0.56371468 1.6541355 0.60454541
0.13164212 0.39879817 1.1702129 0.85454535
0.23996818 0.41194537 1.2087914 0.82727259
0.24396765 0.41194537 1.2087914 0.82727259
0.24796712 0.41194537 1.2087914 0.82727259
0.26773462 0.43088537 1.2643679 0.79090899
0.27191797 0.43088537 1.2643679 0.79090899
0.27769724 0.43337601 1.2716763 0.78636366
-0.60658616 0.394281 1.1458334 0.87272722
-0.11450166 0.4252919 1.2359551 0.80909085
-0.11003191 0.44012764 1.2790698 0.78181815
0.21264595 0.4252919 1.2359551 0.80909085
0.21197189 0.41594484 1.2087914 0.82727259
0.21597137 0.41594484 1.2087914 0.82727259
0.21757983 0.41142368 1.1956522 0.83636361
0.23596871 0.41594484 1.2087914 0.82727259
0.23996818 0.41594484 1.2087914 0.82727259
0.24796712 0.41594484 1.2087914 0.82727259
-0.13719647 0.40015635 1.1518326 0.86818171
-0.12268035 0.42938122 1.2359551 0.80909085
-0.11662541 0.42226443 1.2154697 0.8227272
-0.11450166 0.42938122 1.2359551 0.80909085
0.10190649 0.50953239 1.4666668 0.68181813
0.11803839 0.51641798 1.4864866 0.67272723
0.19997348 0.41994432 1.2087914 0.82727259
0.20397295 0.41994432 1.2087914 0.82727259
-0.13271168 0.42628598 1.2154697 0.8227272
