# .PCD v0.7 - Point Cloud Data file format
VERSION 0.7
FIELDS x y z intensity
SIZE 4 4 4 4
TYPE F F F F
COUNT 1 1 1 1
WIDTH 1085
HEIGHT 1
VIEWPOINT 0 0 0 1 0 0 0
POINTS 1085
DATA ascii
-0.30106986 -0.28099853 1.1282052 0.88636357
-0.29942468 -0.449137 1.8032788 0.5545454
-0.28873095 -0.449137 1.8032788 0.5545454
0.18204224 -0.42476523 1.7054265 0.58636361
0.19365691 -0.42808369 1.71875 0.58181816
0.20384938 -0.42808369 1.71875 0.58181816
-0.50993389 -0.27152324 1.1167513 0.89545453
-0.5033114 -0.27152324 1.1167513 0.89545453
-0.42613739 -0.26879436 1.1055276 0.90454543
-0.39991355 -0.26879436 1.1055276 0.90454543
-0.3933576 -0.26879436 1.1055276 0.90454543
-0.38680163 -0.26879436 1.1055276 0.90454543
-0.31445074 -0.27430809 1.1282052 0.88636357
-0.31094953 -0.27715066 1.1398964 0.87727273
-0.30418974 -0.27715066 1.1398964 0.87727273
-0.29942468 -0.43844327 1.8032788 0.5545454
-0.28873095 -0.43844327 1.8032788 0.5545454
0.19518177 -0.42118171 1.7322835 0.57727271
0.20545448 -0.42118171 1.7322835 0.57727271
1.121987 -0.53490078 2.2 0.45454544
-0.50993389 -0.26490071 1.1167513 0.89545453
-0.5033114 -0.26490071 1.1167513 0.89545453
-0.46547315 -0.26223838 1.1055276 0.90454543
-0.4589172 -0.26223838 1.1055276 0.90454543
-0.3933576 -0.26223838 1.1055276 0.90454543
-0.31950271 -0.26625225 1.122449 0.89090902
-0.29942468 -0.42774954 1.8032788 0.5545454
-0.28873095 -0.42774954 1.8032788 0.5545454
0.19518177 -0.41090897 1.7322835 0.57727271
0.20545448 -0.41090897 1.7322835 0.57727271
-0.5033114 -0.25827819 1.1167513 0.89545453
-0.46547315 -0.25568244 1.1055276 0.90454543
-0.4589172 -0.25568244 1.1055276 0.90454543
-0.33452207 -0.2609272 1.1282052 0.88636357
-0.32783163 -0.2609272 1.1282052 0.88636357
-0.31268138 -0.42050254 1.818182 0.54999995
-0.30189928 -0.42050254 1.818182 0.54999995
-0.29111716 -0.42050254 1.818182 0.54999995
0.18490905 -0.40063626 1.7322835 0.57727271
0.19518177 -0.40063626 1.7322835 0.57727271
0.20545448 -0.40063626 1.7322835 0.57727271
1.0958942 -0.50880808 2.2 0.45454544
1.1089406 -0.50880808 2.2 0.45454544
-0.46547315 -0.24912648 1.1055276 0.90454543
-0.4589172 -0.24912648 1.1055276 0.90454543
-0.30106986 -0.25423676 1.1282052 0.88636357
-0.30697319 -0.41660649 1.8487396 0.54090905
-0.29600987 -0.41660649 1.8487396 0.54090905
-0.045891717 -0.24912648 1.1055276 0.90454543
0.18637657 -0.39346164 1.7460318 0.57272726
0.19830467 -0.39660934 1.76 0.56818181
0.20874175 -0.39660934 1.76 0.56818181
1.0958942 -0.49576169 2.2 0.45454544
-0.47019878 -0.24503317 1.1167513 0.89545453
-0.4589172 -0.24257052 1.1055276 0.90454543
-0.34790295 -0.24754633 1.1282052 0.88636357
-0.30697319 -0.40564317 1.8487396 0.54090905
-0.29600987 -0.40564317 1.8487396 0.54090905
-0.01311192 -0.24257052 1.1055276 0.90454543
-0.0067249285 -0.24882235 1.1340207 0.88181812
0 -0.24257052 1.1055276 0.90454543
0.19830467 -0.38617226 1.76 0.56818181
0.20874175 -0.38617226 1.76 0.56818181
1.0958942 -0.48271534 2.2 0.45454544
-0.50436962 -0.24209742 1.1340207 0.88181812
-0.46357626 -0.23841065 1.1167513 0.89545453
-0.326159 -0.24461927 1.1458334 0.87272722
-0.2891719 -0.24209742 1.1340207 0.88181812
-0.30957466 -0.39802459 1.8644069 0.5363636
-0.29851845 -0.39802459 1.8644069 0.5363636
0.18786758 -0.37573516 1.76 0.56818181
0.19830467 -0.37573516 1.76 0.56818181
-0.48171178 -0.23416544 1.1282052 0.88636357
-0.47502133 -0.23416544 1.1282052 0.88636357
-0.31921947 -0.24288438 1.1702129 0.85454535
-0.30957466 -0.38696834 1.8644069 0.5363636
-0.29851845 -0.38696834 1.8644069 0.5363636
0.045891717 -0.2294586 1.1055276 0.90454543
0.18786758 -0.36529809 1.76 0.56818181
0.19830467 -0.36529809 1.76 0.56818181
1.082848 -0.4566226 2.2 0.45454544
-0.51109457 -0.22864756 1.1340207 0.88181812
-0.50436962 -0.22864756 1.1340207 0.88181812
-0.34185651 -0.23720656 1.1764706 0.84999996
-0.32092652 -0.23720656 1.1764706 0.84999996
-0.31394985 -0.23720656 1.1764706 0.84999996
-0.30697319 -0.23720656 1.1764706 0.84999996
-0.36797428 -0.37912503 1.880342 0.53181815
-0.32337135 -0.37912503 1.880342 0.53181815
-0.3122206 -0.37912503 1.880342 0.53181815
-0.30106986 -0.37912503 1.880342 0.53181815
0.1774305 -0.35486099 1.76 0.56818181
0.18786758 -0.35486099 1.76 0.56818181
0.19830467 -0.35486099 1.76 0.56818181
1.082848 -0.44357625 2.2 0.45454544
-0.51109457 -0.22192264 1.1340207 0.88181812
-0.32265192 -0.23146769 1.1827958 0.84545451
-0.31734392 -0.23271888 1.1891893 0.840909
-0.30957466 -0.36485586 1.8644069 0.5363636
-0.29851845 -0.36485586 1.8644069 0.5363636
0.18786758 -0.34442389 1.76 0.56818181
0.19830467 -0.34442389 1.76 0.56818181
1.0698016 -0.43052989 2.2 0.45454544
-0.53680336 -0.21743934 1.1458334 0.87272722
-0.52726221 -0.21631271 1.1398964 0.87727273
-0.51109457 -0.21519771 1.1340207 0.88181812
-0.33668029 -0.22445352 1.1827958 0.84545451
-0.33144811 -0.22566679 1.1891893 0.840909
-0.32439601 -0.22566679 1.1891893 0.840909
-0.3122206 -0.35682353 1.880342 0.53181815
-0.29851845 -0.35379964 1.8644069 0.5363636
-0.26761767 -0.35682353 1.880342 0.53181815
-0.25646693 -0.35682353 1.880342 0.53181815
0.18938264 -0.33668026 1.7741935 0.56363636
1.0698016 -0.41748354 2.2 0.45454544
-0.54471922 -0.20847277 1.1340207 0.88181812
-0.53799427 -0.20847277 1.1340207 0.88181812
-0.52050245 -0.20955294 1.1398964 0.87727273
-0.33452207 -0.34567282 1.880342 0.53181815
-0.26761767 -0.34567282 1.880342 0.53181815
-0.25646693 -0.34567282 1.880342 0.53181815
-0.24323724 -0.3427434 1.8644069 0.5363636
-0.232181 -0.3427434 1.8644069 0.5363636
-0.21926658 -0.33986318 1.8487396 0.54090905
-0.21006852 -0.3427434 1.8644069 0.5363636
-0.19733991 -0.33986318 1.8487396 0.54090905
-0.18637659 -0.33986318 1.8487396 0.54090905
0.18482345 -0.33703101 1.8333335 0.5454545
0.1940781 -0.33424562 1.818182 0.54999995
-0.60213971 -0.20071325 1.1282052 0.88636357
-0.55144411 -0.20174785 1.1340207 0.88181812
-0.54471922 -0.20174785 1.1340207 0.88181812
-0.53000838 -0.20384939 1.1458334 0.87272722
-0.52321345 -0.20384939 1.1458334 0.87272722
-0.51641846 -0.20384939 1.1458334 0.87272722
-0.34555227 -0.21156262 1.1891893 0.840909
-0.34033984 -0.21271241 1.1956522 0.83636361
-0.30957466 -0.33168715 1.8644069 0.5363636
-0.29851845 -0.33168715 1.8644069 0.5363636
-0.19733991 -0.32889986 1.8487396 0.54090905
-0.18637659 -0.32889986 1.8487396 0.54090905
-0.17541325 -0.32889986 1.8487396 0.54090905
-0.16584358 -0.33168715 1.8644069 0.5363636
-0.1561103 -0.33452207 1.880342 0.53181815
-0.1437311 -0.33168715 1.8644069 0.5363636
-0.065231808 -0.32615903 1.8333335 0.5454545
-0.054816645 -0.32889986 1.8487396 0.54090905
0.19569542 -0.32615903 1.8333335 0.5454545
-0.56693614 -0.19808611 1.1518326 0.86818171
-0.55144411 -0.19502293 1.1340207 0.88181812
-0.52595282 -0.19808611 1.1518326 0.86818171
-0.51912224 -0.19808611 1.1518326 0.86818171
-0.35452068 -0.20562199 1.1956522 0.83636361
-0.34743026 -0.20562199 1.1956522 0.83636361
-0.12161862 -0.32063091 1.8644069 0.5363636
-0.10963329 -0.31793654 1.8487396 0.54090905
-0.087706625 -0.31793654 1.8487396 0.54090905
-0.077393666 -0.32063091 1.8644069 0.5363636
-0.066337429 -0.32063091 1.8644069 0.5363636
-0.055753678 -0.32337135 1.880342 0.53181815
0.17689982 -0.32063091 1.8644069 0.5363636
0.19901229 -0.32063091 1.8644069 0.5363636
0.36128381 -0.29103419 1.6923077 0.59090906
-0.57983828 -0.19327943 1.1640213 0.85909086
-0.56398332 -0.19025943 1.1458334 0.87272722
-0.54359835 -0.19025943 1.1458334 0.87272722
-0.36239892 -0.2029434 1.2222223 0.81818175
-0.35515094 -0.2029434 1.2222223 0.81818175
-0.087706625 -0.30697319 1.8487396 0.54090905
-0.078055151 -0.3122206 1.880342 0.53181815
-0.066904418 -0.3122206 1.880342 0.53181815
0.08844991 -0.30957466 1.8644069 0.5363636
0.17841177 -0.3122206 1.880342 0.53181815
0.18956251 -0.3122206 1.880342 0.53181815
0.20071325 -0.3122206 1.880342 0.53181815
0.35124815 -0.28099853 1.6923077 0.59090906
0.36692888 -0.28538913 1.71875 0.58181816
-0.59301639 -0.18836991 1.1764706 0.84999996
-0.57983828 -0.18637659 1.1640213 0.85909086
-0.36239892 -0.19569542 1.2222223 0.81818175
-0.40305832 -0.28638354 1.7886181 0.55909085
-0.39893833 -0.29111716 1.818182 0.54999995
-0.15745609 -0.30366531 1.8965518 0.5272727
-0.14620921 -0.30366531 1.8965518 0.5272727
-0.13380884 -0.30106986 1.880342 0.53181815
-0.1226581 -0.30106986 1.880342 0.53181815
-0.11150736 -0.30106986 1.880342 0.53181815
-0.089205883 -0.30106986 1.880342 0.53181815
-0.078055151 -0.30106986 1.880342 0.53181815
-0.066904418 -0.30106986 1.880342 0.53181815
-0.044602942 -0.30106986 1.880342 0.53181815
-0.033452209 -0.30106986 1.880342 0.53181815
-0.022301471 -0.30106986 1.880342 0.53181815
-0.011150735 -0.30106986 1.880342 0.53181815
0 -0.30106986 1.880342 0.53181815
0.011150735 -0.30106986 1.880342 0.53181815
0.022301471 -0.30106986 1.880342 0.53181815
0.033452209 -0.30106986 1.880342 0.53181815
0.066904418 -0.30106986 1.880342 0.53181815
0.078055151 -0.30106986 1.880342 0.53181815
0.089205883 -0.30106986 1.880342 0.53181815
0.10035662 -0.30106986 1.880342 0.53181815
0.11150736 -0.30106986 1.880342 0.53181815
0.12161862 -0.29851845 1.8644069 0.5363636
0.13267486 -0.29851845 1.8644069 0.5363636
0.1437311 -0.29851845 1.8644069 0.5363636
0.1561103 -0.30106986 1.880342 0.53181815
0.17841177 -0.30106986 1.880342 0.53181815
0.18956251 -0.30106986 1.880342 0.53181815
0.20071325 -0.30106986 1.880342 0.53181815
0.34654394 -0.27519667 1.71875 0.58181816
0.35673642 -0.27519667 1.71875 0.58181816
0.36692888 -0.27519667 1.71875 0.58181816
-0.59364396 -0.17947376 1.1640213 0.85909086
-0.59301639 -0.18139325 1.1764706 0.84999996
-0.39706317 -0.18435076 1.1956522 0.83636361
-0.38997275 -0.18435076 1.1956522 0.83636361
-0.37689489 -0.18844745 1.2222223 0.81818175
-0.37804797 -0.19273034 1.2500001 0.79999995
-0.43487871 -0.27577674 1.7886181 0.55909085
-0.43128467 -0.28033504 1.818182 0.54999995
-0.41366512 -0.27577674 1.7886181 0.55909085
-0.40972045 -0.28033504 1.818182 0.54999995
-0.26311988 -0.28504655 1.8487396 0.54090905
-0.25429347 -0.2874622 1.8644069 0.5363636
-0.066904418 -0.28991914 1.880342 0.53181815
-0.011246863 -0.29241842 1.8965518 0.5272727
0 -0.28991914 1.880342 0.53181815
0.033452209 -0.28991914 1.880342 0.53181815
0.044602942 -0.28991914 1.880342 0.53181815
0.055753678 -0.28991914 1.880342 0.53181815
0.26534972 -0.2874622 1.8644069 0.5363636
-0.59364396 -0.17257091 1.1640213 0.85909086
-0.41313478 -0.18119946 1.2222223 0.81818175
-0.38997275 -0.17726034 1.1956522 0.83636361
-0.49753073 -0.27640596 1.8644069 0.5363636
-0.47948164 -0.27876839 1.880342 0.53181815
-0.46833092 -0.27876839 1.880342 0.53181815
-0.4651311 -0.28361651 1.9130435 0.52272725
-0.2302299 -0.27408323 1.8487396 0.54090905
-0.21926658 -0.27408323 1.8487396 0.54090905
-0.17541325 -0.27408323 1.8487396 0.54090905
0.078055151 -0.27876839 1.880342 0.53181815
0.10035662 -0.27876839 1.880342 0.53181815
0.13267486 -0.27640596 1.8644069 0.5363636
0.1437311 -0.27640596 1.8644069 0.5363636
0.35673642 -0.25481173 1.71875 0.58181816
0.37573516 -0.2609272 1.76 0.56818181
0.37712136 -0.25481173 1.71875 0.58181816
0.38135514 -0.25089154 1.6923077 0.59090906
-0.60054678 -0.16566807 1.1640213 0.85909086
-0.59364396 -0.16566807 1.1640213 0.85909086
-0.42085034 -0.16834015 1.1827958 0.84545451
-0.41833439 -0.17016992 1.1956522 0.83636361
-0.41124398 -0.17016992 1.1956522 0.83636361
-0.53319907 -0.27227187 1.9130435 0.52272725
-0.5218544 -0.27227187 1.9130435 0.52272725
-0.51050973 -0.27227187 1.9130435 0.52272725
-0.49916509 -0.27227187 1.9130435 0.52272725
-0.2609272 -0.2504901 1.76 0.56818181
-0.2504901 -0.2504901 1.76 0.56818181
-0.18637659 -0.26311988 1.8487396 0.54090905
-0.17541325 -0.26311988 1.8487396 0.54090905
-0.1437311 -0.26534972 1.8644069 0.5363636
-0.12161862 -0.26534972 1.8644069 0.5363636
-0.10963329 -0.26311988 1.8487396 0.54090905
-0.098669954 -0.26311988 1.8487396 0.54090905
-0.066337429 -0.26534972 1.8644069 0.5363636
0.033168714 -0.26534972 1.8644069 0.5363636
0.13267486 -0.26534972 1.8644069 0.5363636
0.1437311 -0.26534972 1.8644069 0.5363636
0.21186398 -0.26761767 1.880342 0.53181815
0.22301471 -0.26761767 1.880342 0.53181815
0.23416546 -0.26761767 1.880342 0.53181815
0.35673642 -0.24461925 1.71875 0.58181816
0.3913908 -0.24085589 1.6923077 0.59090906
-0.60108888 -0.15710278 1.1518326 0.86818171
-0.43487871 -0.16132596 1.1827958 0.84545451
-0.42786452 -0.16132596 1.1827958 0.84545451
-0.42085034 -0.16132596 1.1827958 0.84545451
-0.38598701 -0.17755403 1.3017752 0.7681818
-0.47647578 -0.2609272 1.9130435 0.52272725
-0.29103419 -0.23082022 1.6923077 0.59090906
-0.28099853 -0.23082022 1.6923077 0.59090906
-0.22961594 -0.24005303 1.76 0.56818181
-0.19733991 -0.25215656 1.8487396 0.54090905
-0.17541325 -0.25215656 1.8487396 0.54090905
-0.16726103 -0.25646693 1.880342 0.53181815
-0.1561103 -0.25646693 1.880342 0.53181815
-0.087706625 -0.25215656 1.8487396 0.54090905
-0.077393666 -0.25429347 1.8644069 0.5363636
-0.066337429 -0.25429347 1.8644069 0.5363636
-0.055281192 -0.25429347 1.8644069 0.5363636
-0.044224955 -0.25429347 1.8644069 0.5363636
-0.033168714 -0.25429347 1.8644069 0.5363636
-0.022112478 -0.25429347 1.8644069 0.5363636
0.022112478 -0.25429347 1.8644069 0.5363636
0.033168714 -0.25429347 1.8644069 0.5363636
0.044224955 -0.25429347 1.8644069 0.5363636
0.22301471 -0.25646693 1.880342 0.53181815
0.23416546 -0.25646693 1.880342 0.53181815
0.35204464 -0.23814784 1.7460318 0.57272726
0.36239889 -0.23814784 1.7460318 0.57272726
0.40142646 -0.23082022 1.6923077 0.59090906
0.92852473 -0.27032998 1.981982 0.50454545
-0.59544927 -0.14718971 1.1282052 0.88636357
-0.39673144 -0.16784792 1.2865498 0.77727264
-0.39370674 -0.16983429 1.3017752 0.7681818
-0.48065537 -0.25177187 1.9298246 0.5181818
-0.46921119 -0.25177187 1.9298246 0.5181818
-0.45378643 -0.24958254 1.9130435 0.52272725
-0.43487871 -0.24531619 1.880342 0.53181815
-0.32114118 -0.22078456 1.6923077 0.59090906
-0.29103419 -0.22078456 1.6923077 0.59090906
-0.28099853 -0.22078456 1.6923077 0.59090906
-0.17541325 -0.24119323 1.8487396 0.54090905
0.022112478 -0.24323724 1.8644069 0.5363636
0.033168714 -0.24323724 1.8644069 0.5363636
0.044224955 -0.24323724 1.8644069 0.5363636
0.055281192 -0.24323724 1.8644069 0.5363636
0.12161862 -0.24323724 1.8644069 0.5363636
0.22493726 -0.24743098 1.8965518 0.5272727
0.23618412 -0.24743098 1.8965518 0.5272727
0.34442389 -0.22961594 1.76 0.56818181
0.37712136 -0.22423431 1.71875 0.58181816
0.91677123 -0.25857651 1.981982 0.50454545
0.92852473 -0.25857651 1.981982 0.50454545
-0.60524356 -0.14122349 1.1340207 0.88181812
-0.40488708 -0.15745609 1.2643679 0.79090899
-0.40142649 -0.16211455 1.3017752 0.7681818
-0.36358711 -0.2245685 1.8032788 0.5545454
-0.29103419 -0.2107489 1.6923077 0.59090906
-0.17541325 -0.2302299 1.8487396 0.54090905
-0.16726103 -0.23416546 1.880342 0.53181815
-0.14495957 -0.23416546 1.880342 0.53181815
0.033168714 -0.232181 1.8644069 0.5363636
0.044224955 -0.232181 1.8644069 0.5363636
0.33398682 -0.21917886 1.76 0.56818181
0.36692888 -0.21404184 1.71875 0.58181816
0.37712136 -0.21404184 1.71875 0.58181816
0.38731381 -0.21404184 1.71875 0.58181816
0.39442486 -0.21238261 1.7054265 0.58636361
0.89326429 -0.24682303 1.981982 0.50454545
0.90501779 -0.24682303 1.981982 0.50454545
0.91677123 -0.24682303 1.981982 0.50454545
-0.60572392 -0.13312612 1.122449 0.89090902
-0.37737408 -0.21564233 1.818182 0.54999995
-0.29103419 -0.20071323 1.6923077 0.59090906
-0.28099853 -0.20071323 1.6923077 0.59090906
-0.27096286 -0.20071323 1.6923077 0.59090906
-0.2609272 -0.20071323 1.6923077 0.59090906
-0.13046362 -0.21743935 1.8333335 0.5454545
-0.11959165 -0.21743935 1.8333335 0.5454545
-0.10693739 -0.21387477 1.8032788 0.5545454
-0.095461182 -0.21213596 1.7886181 0.55909085
-0.084170066 -0.21042515 1.7741935 0.56363636
-0.073648803 -0.21042515 1.7741935 0.56363636
-0.063127548 -0.21042515 1.7741935 0.56363636
-0.042774953 -0.21387477 1.8032788 0.5545454
0.022112478 -0.22112477 1.8644069 0.5363636
0.32354972 -0.20874175 1.76 0.56818181
0.43487868 -0.19767213 1.6666667 0.59999996
0.91677123 -0.23506956 1.981982 0.50454545
-0.61869341 -0.12777364 1.1340207 0.88181812
-0.37123793 -0.20152916 1.7886181 0.55909085
-0.29877162 -0.18922202 1.6793894 0.59545451
-0.25089154 -0.19067757 1.6923077 0.59090906
-0.24461925 -0.19365691 1.71875 0.58181816
-0.23814784 -0.19673082 1.7460318 0.57272726
-0.22779359 -0.19673082 1.7460318 0.57272726
-0.21743934 -0.19673082 1.7460318 0.57272726
-0.20708509 -0.19673082 1.7460318 0.57272726
-0.19673082 -0.19673082 1.7460318 0.57272726
-0.10192469 -0.19365691 1.71875 0.58181816
-0.031062763 -0.19673082 1.7460318 0.57272726
-0.020874176 -0.19830467 1.76 0.56818181
-0.010521258 -0.19990391 1.7741935 0.56363636
0 -0.19990391 1.7741935 0.56363636
0.10354254 -0.19673082 1.7460318 0.57272726
0.11389679 -0.19673082 1.7460318 0.57272726
0.12230963 -0.19365691 1.71875 0.58181816
0.32881075 -0.20152916 1.7886181 0.55909085
0.35673642 -0.19365691 1.71875 0.58181816
0.36692888 -0.19365691 1.71875 0.58181816
0.38731381 -0.19365691 1.71875 0.58181816
0.3913908 -0.19067757 1.6923077 0.59090906
0.43819836 -0.18922202 1.6793894 0.59545451
0.44815743 -0.18922202 1.6793894 0.59545451
-0.63524169 -0.12295 1.1518326 0.86818171
-0.62841111 -0.12295 1.1518326 0.86818171
-0.38184473 -0.19092236 1.7886181 0.55909085
-0.36824402 -0.18938264 1.7741935 0.56363636
-0.34927264 -0.18490905 1.7322835 0.57727271
-0.30106986 -0.1806419 1.6923077 0.59090906
-0.18637657 -0.18637657 1.7460318 0.57272726
-0.16699341 -0.18786758 1.76 0.56818181
-0.1553138 -0.18637657 1.7460318 0.57272726
-0.12425105 -0.18637657 1.7460318 0.57272726
-0.11389679 -0.18637657 1.7460318 0.57272726
-0.10113458 -0.18204224 1.7054265 0.58636361
-0.091021121 -0.18204224 1.7054265 0.58636361
-0.080285296 -0.1806419 1.6923077 0.59090906
-0.06918525 -0.17790492 1.6666667 0.59999996
-0.059301641 -0.17790492 1.6666667 0.59999996
-0.049418032 -0.17790492 1.6666667 0.59999996
0.031062763 -0.18637657 1.7460318 0.57272726
0.041417018 -0.18637657 1.7460318 0.57272726
0.11211716 -0.18346444 1.71875 0.58181816
0.12230963 -0.18346444 1.71875 0.58181816
0.33398682 -0.18786758 1.76 0.56818181
0.34169039 -0.18637657 1.7460318 0.57272726
0.38731381 -0.18346444 1.71875 0.58181816
0.43153346 -0.1806419 1.6923077 0.59090906
0.43819836 -0.17926297 1.6793894 0.59545451
-0.62865883 -0.11491612 1.1398964 0.87727273
-0.40722743 -0.12820123 1.2716763 0.78636366
-0.40914622 -0.13123558 1.3017752 0.7681818
-0.38928655 -0.17886138 1.7741935 0.56363636
-0.37573516 -0.1774305 1.76 0.56818181
-0.29103419 -0.17060626 1.6923077 0.59090906
-0.23814784 -0.17602232 1.7460318 0.57272726
-0.22779359 -0.17602232 1.7460318 0.57272726
-0.21743934 -0.17602232 1.7460318 0.57272726
-0.20708509 -0.17602232 1.7460318 0.57272726
-0.06918525 -0.16802131 1.6666667 0.59999996
-0.039534427 -0.16802131 1.6666667 0.59999996
-0.02965082 -0.16802131 1.6666667 0.59999996
-0.019918108 -0.16930391 1.6793894 0.59545451
-0.0099590542 -0.16930391 1.6793894 0.59545451
0.010192469 -0.17327197 1.71875 0.58181816
0.021042516 -0.17886138 1.7741935 0.56363636
0.1346053 -0.17602232 1.7460318 0.57272726
0.42149779 -0.17060626 1.6923077 0.59090906
0.43153346 -0.17060626 1.6923077 0.59090906
-0.63541859 -0.10815635 1.1398964 0.87727273
-0.40722743 -0.12065998 1.2716763 0.78636366
-0.40673947 -0.12278928 1.2941177 0.77272725
-0.27736357 -0.16436359 1.7322835 0.57727271
-0.18786758 -0.16699341 1.76 0.56818181
-0.1774305 -0.16699341 1.76 0.56818181
-0.16699341 -0.16699341 1.76 0.56818181
-0.13568215 -0.16699341 1.76 0.56818181
-0.12425105 -0.16566807 1.7460318 0.57272726
0.050962344 -0.1630795 1.71875 0.58181816
0.2874622 -0.17689982 1.8644069 0.5363636
0.33941755 -0.16970877 1.7886181 0.55909085
0.34442389 -0.16699341 1.76 0.56818181
0.37275314 -0.16566807 1.7460318 0.57272726
0.38310739 -0.16566807 1.7460318 0.57272726
-0.64890277 -0.10245834 1.1518326 0.86818171
-0.28538913 -0.15288703 1.71875 0.58181816
-0.25885636 -0.1553138 1.7460318 0.57272726
0.27876839 -0.16726103 1.880342 0.53181815
0.2874622 -0.16584358 1.8644069 0.5363636
0.33150589 -0.16040608 1.8032788 0.5545454
0.34219962 -0.16040608 1.8032788 0.5545454
0.34442389 -0.15655632 1.76 0.56818181
0.3975063 -0.15288703 1.71875 0.58181816
0.40769875 -0.15288703 1.71875 0.58181816
0.42149779 -0.15053493 1.6923077 0.59090906
-0.64217836 -0.094636813 1.1398964 0.87727273
-0.39836216 -0.13942675 1.6793894 0.59545451
0.086975738 -0.1352956 1.6296297 0.61363631
0.096639708 -0.1352956 1.6296297 0.61363631
0.27408323 -0.15348659 1.8487396 0.54090905
0.28267115 -0.15220755 1.8333335 0.5454545
0.34169039 -0.14495955 1.7460318 0.57272726
0.3975063 -0.14269456 1.71875 0.58181816
0.40142646 -0.14049926 1.6923077 0.59090906
0.42823932 -0.13942675 1.6793894 0.59545451
0.43487868 -0.1383705 1.6666667 0.59999996
0.45759624 -0.13630526 1.6417911 0.60909086
-0.65573335 -0.088797227 1.1518326 0.86818171
-0.36952117 -0.09803623 1.2716763 0.78636366
-0.15655632 -0.13568215 1.76 0.56818181
-0.059754323 -0.1294677 1.6793894 0.59545451
0.019618588 -0.12752083 1.6541355 0.60454541
0.029427882 -0.12752083 1.6541355 0.60454541
0.038655885 -0.12563163 1.6296297 0.61363631
0.047614451 -0.12379757 1.6058394 0.62272727
0.05713734 -0.12379757 1.6058394 0.62272727
0.08570601 -0.12379757 1.6058394 0.62272727
0.095228903 -0.12379757 1.6058394 0.62272727
0.1047518 -0.12379757 1.6058394 0.62272727
0.23442678 -0.13250209 1.71875 0.58181816
0.2504901 -0.13568215 1.76 0.56818181
0.33941755 -0.13788837 1.7886181 0.55909085
0.34169039 -0.1346053 1.7460318 0.57272726
0.39442486 -0.13147496 1.7054265 0.58636361
0.40142646 -0.1304636 1.6923077 0.59090906
0.45759624 -0.12656917 1.6417911 0.60909086
0.53842121 -0.1346053 1.7460318 0.57272726
0.56216031 -0.13788837 1.7886181 0.55909085
-0.38989127 -0.089974903 1.2643679 0.79090899
-0.23814784 -0.12425105 1.7460318 0.57272726
-0.22779359 -0.12425105 1.7460318 0.57272726
-0.15655632 -0.12524505 1.76 0.56818181
-0.14495955 -0.12425105 1.7460318 0.57272726
-0.080285296 -0.12042794 1.6923077 0.59090906
-0.039534427 -0.11860328 1.6666667 0.59999996
-0.0098092938 -0.11771153 1.6541355 0.60454541
0.095228903 -0.11427468 1.6058394 0.62272727
0.1047518 -0.11427468 1.6058394 0.62272727
0.22078456 -0.12042794 1.6923077 0.59090906
0.23082022 -0.12042794 1.6923077 0.59090906
0.33635148 -0.12230963 1.71875 0.58181816
0.38431141 -0.12136149 1.7054265 0.58636361
0.53418165 -0.12327269 1.7322835 0.57727271
0.56635362 -0.12136149 1.7054265 0.58636361
0.5955947 -0.11344661 1.5942029 0.62727273
-0.67673635 -0.076743297 1.1764706 0.84999996
-0.66975969 -0.076743297 1.1764706 0.84999996
-0.66278303 -0.076743297 1.1764706 0.84999996
-0.38546067 -0.081539758 1.2500001 0.79999995
-0.38239336 -0.082476996 1.2643679 0.79090899
-0.1553138 -0.11389679 1.7460318 0.57272726
-0.13250209 -0.11211716 1.71875 0.58181816
-0.090320952 -0.11039228 1.6923077 0.59090906
0.038655885 -0.10630368 1.6296297 0.61363631
0.095228903 -0.1047518 1.6058394 0.62272727
0.10552203 -0.10552203 1.6176471 0.61818182
0.20071323 -0.11039228 1.6923077 0.59090906
0.2107489 -0.11039228 1.6923077 0.59090906
0.36408448 -0.11124804 1.7054265 0.58636361
0.37419796 -0.11124804 1.7054265 0.58636361
0.57403982 -0.11480797 1.76 0.56818181
0.58950222 -0.10630368 1.6296297 0.61363631
0.69455445 -0.10324458 1.5827339 0.63181818
0.62221104 -0.073594853 1.1282052 0.88636357
-0.67673635 -0.069766633 1.1764706 0.84999996
-0.66975969 -0.069766633 1.1764706 0.84999996
-0.44212669 -0.072479784 1.2222223 0.81818175
-0.43976498 -0.073294163 1.2359551 0.80909085
-0.42763072 -0.072479784 1.2222223 0.81818175
-0.39802456 -0.073708251 1.2429379 0.8045454
-0.39065373 -0.073708251 1.2429379 0.8045454
-0.38546067 -0.074127056 1.2500001 0.79999995
-0.35649937 -0.075850934 1.2790698 0.78181815
-0.40488705 -0.089974903 1.5172415 0.65909088
-0.15910196 -0.10606798 1.7886181 0.55909085
-0.058855765 -0.098092943 1.6541355 0.60454541
-0.039237175 -0.098092943 1.6541355 0.60454541
0.0095228907 -0.095228903 1.6058394 0.62272727
0.019618588 -0.098092943 1.6541355 0.60454541
0.086975738 -0.096639708 1.6296297 0.61363631
0.096639708 -0.096639708 1.6296297 0.61363631
0.10630368 -0.096639708 1.6296297 0.61363631
0.1921557 -0.10113458 1.7054265 0.58636361
0.20226917 -0.10113458 1.7054265 0.58636361
0.25885636 -0.10354254 1.7460318 0.57272726
0.39836216 -0.09959054 1.6793894 0.59545451
0.45759624 -0.097360902 1.6417911 0.60909086
0.50178307 -0.10035662 1.6923077 0.59090906
0.5776251 -0.09959054 1.6793894 0.59545451
0.5875842 -0.09959054 1.6793894 0.59545451
0.58416539 -0.097360902 1.6417911 0.60909086
0.58950222 -0.096639708 1.6296297 0.61363631
0.61394638 -0.095929116 1.6176471 0.61818182
0.652318 -0.091875777 1.5492958 0.64545453
0.66150558 -0.091875777 1.5492958 0.64545453
0.68027455 -0.093188293 1.5714287 0.63636363
0.69455445 -0.093858711 1.5827339 0.63181818
0.72686869 -0.093188293 1.5714287 0.63636363
-0.67313671 -0.062455986 1.1702129 0.85454535
-0.44212669 -0.065231808 1.2222223 0.81818175
-0.4104473 -0.065964743 1.2359551 0.80909085
-0.4031179 -0.065964743 1.2359551 0.80909085
-0.39578846 -0.065964743 1.2359551 0.80909085
-0.39065373 -0.066337429 1.2429379 0.8045454
-0.35649937 -0.06826584 1.2790698 0.78181815
-0.37145886 -0.08153975 1.5277778 0.65454543
-0.22339658 -0.080422774 1.5068494 0.66363633
-0.21593976 -0.08097741 1.5172415 0.65909088
-0.20694228 -0.08097741 1.5172415 0.65909088
0.086975738 -0.086975738 1.6296297 0.61363631
0.096639708 -0.086975738 1.6296297 0.61363631
0.22779359 -0.093188286 1.7460318 0.57272726
0.23814784 -0.093188286 1.7460318 0.57272726
0.3913908 -0.090320952 1.6923077 0.59090906
0.5875842 -0.089631483 1.6793894 0.59545451
0.6133737 -0.087624811 1.6417911 0.60909086
0.6982559 -0.082688197 1.5492958 0.64545453
-0.66939443 -0.054644447 1.1518326 0.86818171
-0.44200787 -0.057033271 1.2021859 0.8318181
-0.44212669 -0.057983827 1.2222223 0.81818175
-0.4031179 -0.058635328 1.2359551 0.80909085
-0.39802456 -0.058966603 1.2429379 0.8045454
-0.39065373 -0.058966603 1.2429379 0.8045454
-0.37145886 -0.072479777 1.5277778 0.65454543
-0.36239889 -0.072479777 1.5277778 0.65454543
-0.19794479 -0.071979925 1.5172415 0.65909088
-0.19025943 -0.072479777 1.5277778 0.65454543
-0.18246658 -0.072986633 1.5384616 0.64999998
-0.11025093 -0.073500618 1.5492958 0.64545453
-0.10106336 -0.073500618 1.5492958 0.64545453
-0.065231808 -0.074550636 1.5714287 0.63636363
-0.045937888 -0.073500618 1.5492958 0.64545453
0.076183125 -0.076183125 1.6058394 0.62272727
0.086975738 -0.077311769 1.6296297 0.61363631
0.096639708 -0.077311769 1.6296297 0.61363631
0.37131947 -0.080285296 1.6923077 0.59090906
0.38135514 -0.080285296 1.6923077 0.59090906
0.38840309 -0.079672433 1.6793894 0.59545451
0.39836216 -0.079672433 1.6793894 0.59545451
0.47084612 -0.07847435 1.6541355 0.60454541
0.48799363 -0.079672433 1.6793894 0.59545451
0.56766605 -0.079672433 1.6793894 0.59545451
0.57983828 -0.077311769 1.6296297 0.61363631
0.60363758 -0.07788872 1.6417911 0.60909086
0.6133737 -0.07788872 1.6417911 0.60909086
0.61394638 -0.076743297 1.6176471 0.61818182
0.62353927 -0.076743297 1.6176471 0.61818182
-0.45801055 -0.048576877 1.1702129 0.85454535
-0.45107099 -0.048576877 1.1702129 0.85454535
-0.44413143 -0.048576877 1.1702129 0.85454535
-0.4031179 -0.051305912 1.2359551 0.80909085
-0.36952117 -0.052788742 1.2716763 0.78636366
-0.36239889 -0.063419804 1.5277778 0.65454543
-0.34849867 -0.062551044 1.5068494 0.66363633
-0.3395628 -0.062551044 1.5068494 0.66363633
-0.33290714 -0.062982433 1.5172415 0.65909088
-0.17334326 -0.0638633 1.5384616 0.64999998
-0.018375155 -0.064313047 1.5492958 0.64545453
0 -0.064313047 1.5492958 0.64545453
0.0092527382 -0.064769164 1.5602838 0.64090908
0.019045781 -0.066660233 1.6058394 0.62272727
0.02856867 -0.066660233 1.6058394 0.62272727
0.038091563 -0.066660233 1.6058394 0.62272727
0.047614451 -0.066660233 1.6058394 0.62272727
0.086336203 -0.067150384 1.6176471 0.61818182
0.096639708 -0.0676478 1.6296297 0.61363631
0.17790492 -0.06918525 1.6666667 0.59999996
0.1921557 -0.070794202 1.7054265 0.58636361
0.23082022 -0.070249632 1.6923077 0.59090906
0.24085589 -0.070249632 1.6923077 0.59090906
0.25089154 -0.070249632 1.6923077 0.59090906
0.27466023 -0.068665057 1.6541355 0.60454541
0.37844405 -0.069713376 1.6793894 0.59545451
0.38840309 -0.069713376 1.6793894 0.59545451
0.39836216 -0.069713376 1.6793894 0.59545451
0.40522787 -0.06918525 1.6666667 0.59999996
0.47084612 -0.068665057 1.6541355 0.60454541
0.48799363 -0.069713376 1.6793894 0.59545451
0.57874835 -0.068665057 1.6541355 0.60454541
0.60817623 -0.068665057 1.6541355 0.60454541
0.6133737 -0.068152629 1.6417911 0.60909086
0.61849415 -0.0676478 1.6296297 0.61363631
0.62815809 -0.0676478 1.6296297 0.61363631
-0.67270297 -0.040769875 1.1458334 0.87272722
-0.45801055 -0.041637324 1.1702129 0.85454535
-0.37166956 -0.04551056 1.2790698 0.78181815
-0.33062696 -0.053615183 1.5068494 0.66363633
-0.3216911 -0.053615183 1.5068494 0.66363633
-0.31275523 -0.053615183 1.5068494 0.66363633
-0.30591467 -0.05398494 1.5172415 0.65909088
-0.14700124 -0.055125464 1.5492958 0.64545453
-0.13684994 -0.054739974 1.5384616 0.64999998
-0.1277266 -0.054739974 1.5384616 0.64999998
-0.11777964 -0.054359835 1.5277778 0.65454543
-0.072986633 -0.054739974 1.5384616 0.64999998
-0.063419804 -0.054359835 1.5277778 0.65454543
-0.054359835 -0.054359835 1.5277778 0.65454543
0.038091563 -0.05713734 1.6058394 0.62272727
0.047269419 -0.056723304 1.5942029 0.62727273
0.056315225 -0.056315225 1.5827339 0.63181818
0.066660233 -0.05713734 1.6058394 0.62272727
0.076183125 -0.05713734 1.6058394 0.62272727
0.095929116 -0.057557471 1.6176471 0.61818182
0.17656729 -0.058855765 1.6541355 0.60454541
0.19067757 -0.060213972 1.6923077 0.59090906
0.20071323 -0.060213972 1.6923077 0.59090906
0.23082022 -0.060213972 1.6923077 0.59090906
0.23720656 -0.059301641 1.6666667 0.59999996
0.37844405 -0.059754323 1.6793894 0.59545451
0.46733233 -0.058416542 1.6417911 0.60909086
0.4806554 -0.058855765 1.6541355 0.60454541
0.57983828 -0.057983827 1.6296297 0.61363631
0.58950222 -0.057983827 1.6296297 0.61363631
0.61394638 -0.057557471 1.6176471 0.61818182
0.62353927 -0.057557471 1.6176471 0.61818182
0.70394033 -0.056315225 1.5827339 0.63181818
0.71332622 -0.056315225 1.5827339 0.63181818
0.75954843 -0.053615183 1.5068494 0.66363633
0.76325649 -0.053250451 1.4965987 0.66818178
-0.43487871 -0.035645794 1.2021859 0.8318181
-0.38786477 -0.044075541 1.4864866 0.67272723
-0.37904966 -0.044075541 1.4864866 0.67272723
-0.29488349 -0.044679318 1.5068494 0.66363633
-0.28594765 -0.044679318 1.5068494 0.66363633
-0.27701178 -0.044679318 1.5068494 0.66363633
-0.2699247 -0.044987451 1.5172415 0.65909088
-0.26092723 -0.044987451 1.5172415 0.65909088
-0.25192973 -0.044987451 1.5172415 0.65909088
-0.24293225 -0.044987451 1.5172415 0.65909088
-0.23393475 -0.044987451 1.5172415 0.65909088
-0.21593976 -0.044987451 1.5172415 0.65909088
-0.20694228 -0.044987451 1.5172415 0.65909088
-0.11777964 -0.045299862 1.5277778 0.65454543
-0.10947995 -0.045616645 1.5384616 0.64999998
-0.099659696 -0.045299862 1.5277778 0.65454543
-0.091233291 -0.045616645 1.5384616 0.64999998
-0.082109958 -0.045616645 1.5384616 0.64999998
-0.036239889 -0.045299862 1.5277778 0.65454543
-0.027179917 -0.045299862 1.5277778 0.65454543
-0.018119944 -0.045299862 1.5277778 0.65454543
0.18778853 -0.049418032 1.6666667 0.59999996
0.19767213 -0.049418032 1.6666667 0.59999996
0.20755574 -0.049418032 1.6666667 0.59999996
0.21580447 -0.049046472 1.6541355 0.60454541
0.22561376 -0.049046472 1.6541355 0.60454541
0.23366617 -0.048680451 1.6417911 0.60909086
0.39237177 -0.049046472 1.6541355 0.60454541
0.40218106 -0.049046472 1.6541355 0.60454541
0.45086685 -0.047964558 1.6176471 0.61818182
0.47706839 -0.048680451 1.6417911 0.60909086
0.56598181 -0.047964558 1.6176471 0.61818182
0.6050486 -0.047269419 1.5942029 0.62727273
0.61450243 -0.047269419 1.5942029 0.62727273
0.65694439 -0.046263691 1.5602838 0.64090908
0.69455445 -0.046929356 1.5827339 0.63181818
0.71754986 -0.046594147 1.5714287 0.63636363
0.73500621 -0.045937888 1.5492958 0.64545453
0.76325649 -0.044375379 1.4965987 0.66818178
-0.66245764 -0.027039088 1.1398964 0.87727273
-0.5048089 -0.02622384 1.1055276 0.90454543
-0.37904966 -0.035260435 1.4864866 0.67272723
-0.37023455 -0.035260435 1.4864866 0.67272723
-0.25192973 -0.035989963 1.5172415 0.65909088
-0.24126832 -0.035743456 1.5068494 0.66363633
-0.23233245 -0.035743456 1.5068494 0.66363633
-0.22339658 -0.035743456 1.5068494 0.66363633
-0.21446073 -0.035743456 1.5068494 0.66363633
-0.20694228 -0.035989963 1.5172415 0.65909088
-0.19794479 -0.035989963 1.5172415 0.65909088
-0.18894729 -0.035989963 1.5172415 0.65909088
-0.18119945 -0.036239889 1.5277778 0.65454543
-0.17334326 -0.036493316 1.5384616 0.64999998
-0.027179917 -0.036239889 1.5277778 0.65454543
-0.018246658 -0.036493316 1.5384616 0.64999998
0.084472835 -0.037543483 1.5827339 0.63181818
0.40891579 -0.03894436 1.6417911 0.60909086
0.42838797 -0.03894436 1.6417911 0.60909086
0.43812406 -0.03894436 1.6417911 0.60909086
0.44127393 -0.038371649 1.6176471 0.61818182
0.45086685 -0.038371649 1.6176471 0.61818182
0.5411824 -0.038655885 1.6296297 0.61363631
0.58089632 -0.038091563 1.6058394 0.62272727
0.68516856 -0.037543483 1.5827339 0.63181818
0.71663105 -0.036750309 1.5492958 0.64545453
0.73500621 -0.036750309 1.5492958 0.64545453
0.77213156 -0.035500303 1.4965987 0.66818178
0.76538652 -0.034790296 1.4666668 0.68181813
0.77408409 -0.034790296 1.4666668 0.68181813
-0.66245764 -0.020279316 1.1398964 0.87727273
-0.49825296 -0.019667879 1.1055276 0.90454543
-0.49169698 -0.019667879 1.1055276 0.90454543
-0.45495 -0.020071324 1.1282052 0.88636357
-0.34378922 -0.026445325 1.4864866 0.67272723
-0.18119945 -0.027179917 1.5277778 0.65454543
-0.16421992 -0.027369987 1.5384616 0.64999998
-0.14597327 -0.027369987 1.5384616 0.64999998
-0.054359835 -0.027179917 1.5277778 0.65454543
0.17790492 -0.02965082 1.6666667 0.59999996
0.19067757 -0.030106986 1.6923077 0.59090906
0.20071323 -0.030106986 1.6923077 0.59090906
0.51801723 -0.028778736 1.6176471 0.61818182
0.53720307 -0.028778736 1.6176471 0.61818182
0.68906832 -0.027562732 1.5492958 0.64545453
0.72581863 -0.027562732 1.5492958 0.64545453
0.75197768 -0.027179917 1.5277778 0.65454543
0.75954843 -0.026807591 1.5068494 0.66363633
-0.66590798 -0.013589959 1.1458334 0.87272722
-0.49169698 -0.01311192 1.1055276 0.90454543
-0.44167367 -0.013589959 1.1458334 0.87272722
-0.37508288 -0.016307952 1.3750001 0.72727269
-0.3216911 -0.017871728 1.5068494 0.66363633
-0.13781366 -0.018375155 1.5492958 0.64545453
-0.072986633 -0.018246658 1.5384616 0.64999998
-0.0638633 -0.018246658 1.5384616 0.64999998
-0.054359835 -0.018119944 1.5277778 0.65454543
0.14938581 -0.019918108 1.6793894 0.59545451
0.15934487 -0.019918108 1.6793894 0.59545451
0.16802131 -0.019767214 1.6666667 0.59999996
0.1806419 -0.020071324 1.6923077 0.59090906
0.49883142 -0.019185824 1.6176471 0.61818182
0.50842434 -0.019185824 1.6176471 0.61818182
0.57668692 -0.018907769 1.5942029 0.62727273
0.62950969 -0.018246658 1.5384616 0.64999998
0.67043793 -0.018119944 1.5277778 0.65454543
0.6794979 -0.018119944 1.5277778 0.65454543
0.73385775 -0.018119944 1.5277778 0.65454543
0.76325649 -0.017750151 1.4965987 0.66818178
0.77408409 -0.017395148 1.4666668 0.68181813
-0.65911299 -0.0067949793 1.1458334 0.87272722
-0.49169698 -0.00655596 1.1055276 0.90454543
-0.48514104 -0.00655596 1.1055276 0.90454543
-0.38085651 -0.0081033297 1.3664597 0.73181814
-0.36692891 -0.0081539759 1.3750001 0.72727269
-0.13781366 -0.0091875773 1.5492958 0.64545453
-0.082688197 -0.0091875773 1.5492958 0.64545453
0.15934487 -0.0099590542 1.6793894 0.59545451
0.21419398 -0.00973609 1.6417911 0.60909086
0.49883142 -0.0095929122 1.6176471 0.61818182
0.50842434 -0.0095929122 1.6176471 0.61818182
0.51801723 -0.0095929122 1.6176471 0.61818182
0.57668692 -0.0094538843 1.5942029 0.62727273
0.77408409 -0.008697574 1.4666668 0.68181813
0.78278166 -0.008697574 1.4666668 0.68181813
0.79147923 -0.008697574 1.4666668 0.68181813
-0.64897281 0 1.1282052 0.88636357
-0.48514104 0 1.1055276 0.90454543
-0.48100218 0 1.1111112 0.89999998
-0.38085651 0 1.3664597 0.73181814
-0.36692891 0 1.3750001 0.72727269
-0.3581354 0 1.4379086 0.69545448
-0.12230963 0 1.71875 0.58181816
-0.11211716 0 1.71875 0.58181816
-0.064769164 0 1.5602838 0.64090908
-0.053615183 0 1.5068494 0.66363633
-0.0088750757 0 1.4965987 0.66818178
0 0 1.4965987 0.66818178
0.20755574 0 1.6666667 0.59999996
0.21419398 0 1.6417911 0.60909086
0.51423609 0 1.6058394 0.62272727
0.52375895 0 1.6058394 0.62272727
0.61993349 0 1.5602838 0.64090908
0.720743 0 1.5384616 0.64999998
0.72986633 0 1.5384616 0.64999998
0.78988171 0 1.4965987 0.66818178
0.79335976 0 1.4864866 0.67272723
0.81098998 0 1.4864866 0.67272723
-0.63913989 0.0065890709 1.1111112 0.89999998
-0.63255084 0.0065890709 1.1111112 0.89999998
-0.62596178 0.0065890709 1.1111112 0.89999998
-0.48514104 0.00655596 1.1055276 0.90454543
-0.48100218 0.0065890709 1.1111112 0.89999998
-0.36464983 0.0081033297 1.3664597 0.73181814
-0.3581354 0.008527034 1.4379086 0.69545448
-0.20552486 0.0089358641 1.5068494 0.66363633
-0.10272724 0.010272725 1.7322835 0.57727271
-0.092454523 0.010272725 1.7322835 0.57727271
-0.044375379 0.0088750757 1.4965987 0.66818178
-0.0088151088 0.0088151088 1.4864866 0.67272723
0 0.0087559465 1.4765102 0.67727268
0.52375895 0.0095228907 1.6058394 0.62272727
0.52941751 0.0094538843 1.5942029 0.62727273
0.57668692 0.0094538843 1.5942029 0.62727273
0.58614081 0.0094538843 1.5942029 0.62727273
0.70180422 0.0089974906 1.5172415 0.65909088
0.82079756 0.0086399745 1.4569538 0.68636358
0.83496714 0.008697574 1.4666668 0.68181813
-0.63913989 0.013178142 1.1111112 0.89999998
-0.62596178 0.013178142 1.1111112 0.89999998
-0.42128873 0.013589959 1.1458334 0.87272722
-0.36464983 0.016206659 1.3664597 0.73181814
-0.32826328 0.016834013 1.4193549 0.70454544
-0.0085831322 0.017166264 1.4473685 0.69090903
0 0.016943324 1.4285715 0.69999999
0.0084716622 0.016943324 1.4285715 0.69999999
0.4892385 0.019185824 1.6176471 0.61818182
0.52941751 0.018907769 1.5942029 0.62727273
0.54280472 0.019045781 1.6058394 0.62272727
0.57668692 0.018907769 1.5942029 0.62727273
0.63882184 0.017994981 1.5172415 0.65909088
0.76176739 0.017511893 1.4765102 0.67727268
0.80887443 0.017395148 1.4666668 0.68181813
0.81215757 0.017279949 1.4569538 0.68636358
0.82626957 0.017395148 1.4666668 0.68181813
1.0222894 0.01947218 1.6417911 0.60909086
-0.62281621 0.019667879 1.1055276 0.90454543
-0.40266547 0.024159929 1.3580248 0.73636353
-0.36692891 0.024461927 1.3750001 0.72727269
-0.34960839 0.025581101 1.4379086 0.69545448
0 0.025414988 1.4285715 0.69999999
0.0084170066 0.025251022 1.4193549 0.70454544
0.25192973 0.02699247 1.5172415 0.65909088
0.51996362 0.028361652 1.5942029 0.62727273
0.52941751 0.028361652 1.5942029 0.62727273
0.53887141 0.028361652 1.5942029 0.62727273
0.59130985 0.028157612 1.5827339 0.63181818
0.63444632 0.026807591 1.5068494 0.66363633
0.80351758 0.025919924 1.4569538 0.68636358
0.81215757 0.025919924 1.4569538 0.68636358
0.81539756 0.025749397 1.4473685 0.69090903
-0.62281621 0.02622384 1.1055276 0.90454543
-0.44156912 0.026761765 1.1282052 0.88636357
-0.44167367 0.027179917 1.1458334 0.87272722
-0.43487868 0.027179917 1.1458334 0.87272722
-0.40819901 0.03201561 1.3496933 0.74090904
-0.37508288 0.032615904 1.3750001 0.72727269
-0.36692891 0.032615904 1.3750001 0.72727269
-0.3581354 0.034108136 1.4379086 0.69545448
-0.17279948 0.034559898 1.4569538 0.68636358
0 0.033668026 1.4193549 0.70454544
0.0083097843 0.033239137 1.401274 0.71363634
0.016619569 0.033239137 1.401274 0.71363634
0.53499466 0.037543483 1.5827339 0.63181818
0.54438049 0.037543483 1.5827339 0.63181818
0.58389306 0.036493316 1.5384616 0.64999998
0.62167221 0.035023786 1.4765102 0.67727268
0.6479401 0.035023786 1.4765102 0.67727268
0.77759767 0.034559898 1.4569538 0.68636358
0.80351758 0.034559898 1.4569538 0.68636358
-0.62281621 0.032779798 1.1055276 0.90454543
-0.44370872 0.033112589 1.1167513 0.89545453
-0.44156912 0.033452205 1.1282052 0.88636357
-0.40868115 0.039296266 1.3253012 0.75454545
-0.40819901 0.040019512 1.3496933 0.74090904
-0.3703483 0.042085037 1.4193549 0.70454544
-0.3581354 0.042635169 1.4379086 0.69545448
-0.30497986 0.042358313 1.4285715 0.69999999
-0.28434378 0.041815259 1.4102565 0.70909089
-0.16415951 0.043199871 1.4569538 0.68636358
-0.15655634 0.043487873 1.4666668 0.68181813
-0.14785877 0.043487873 1.4666668 0.68181813
0.0083097843 0.041548919 1.401274 0.71363634
0.016619569 0.041548919 1.401274 0.71363634
0.024929352 0.041548919 1.401274 0.71363634
0.54049212 0.046594147 1.5714287 0.63636363
0.54591155 0.046263691 1.5602838 0.64090908
0.93858707 0.046929356 1.5827339 0.63181818
0.96888411 0.047964558 1.6176471 0.61818182
-0.62281621 0.039335757 1.1055276 0.90454543
-0.44370872 0.039735109 1.1167513 0.89545453
-0.38845906 0.043976497 1.2359551 0.80909085
-0.40868115 0.047155518 1.3253012 0.75454545
-0.38371652 0.051162202 1.4379086 0.69545448
-0.30497986 0.050829977 1.4285715 0.69999999
-0.29650819 0.050829977 1.4285715 0.69999999
-0.2642301 0.049543142 1.3924052 0.71818179
-0.19569542 0.048923854 1.3750001 0.72727269
-0.17938747 0.048923854 1.3750001 0.72727269
-0.14687957 0.051839847 1.4569538 0.68636358
-0.13916118 0.052185446 1.4666668 0.68181813
0.0083097843 0.049858704 1.401274 0.71363634
0.016619569 0.049858704 1.401274 0.71363634
0.024929352 0.049858704 1.401274 0.71363634
0.065231808 0.048923854 1.3750001 0.72727269
0.19569542 0.048923854 1.3750001 0.72727269
0.54049212 0.055912975 1.5714287 0.63636363
0.54981095 0.055912975 1.5714287 0.63636363
0.61291629 0.052535683 1.4765102 0.67727268
0.63492292 0.052185446 1.4666668 0.68181813
0.73439783 0.051839847 1.4569538 0.68636358
0.74303776 0.051839847 1.4569538 0.68636358
0.75167775 0.051839847 1.4569538 0.68636358
0.81215757 0.051839847 1.4569538 0.68636358
0.82079756 0.051839847 1.4569538 0.68636358
0.99308115 0.058416542 1.6417911 0.60909086
-0.62281621 0.045891717 1.1055276 0.90454543
-0.4768213 0.046357628 1.1167513 0.89545453
-0.47019878 0.046357628 1.1167513 0.89545453
-0.38845906 0.051305912 1.2359551 0.80909085
-0.37518948 0.059689235 1.4379086 0.69545448
-0.28617823 0.05891905 1.4193549 0.70454544
-0.27422288 0.058168489 1.401274 0.71363634
-0.25277326 0.057077829 1.3750001 0.72727269
-0.24461928 0.057077829 1.3750001 0.72727269
-0.12176604 0.060883019 1.4666668 0.68181813
0.0083097843 0.058168489 1.401274 0.71363634
0.016619569 0.058168489 1.401274 0.71363634
0.024929352 0.058168489 1.401274 0.71363634
0.55516428 0.064769164 1.5602838 0.64090908
0.57476974 0.0638633 1.5384616 0.64999998
0.62622535 0.060883019 1.4666668 0.68181813
0.67420793 0.061291628 1.4765102 0.67727268
0.68296385 0.061291628 1.4765102 0.67727268
0.69171983 0.061291628 1.4765102 0.67727268
0.71798766 0.061291628 1.4765102 0.67727268
0.80887443 0.060883019 1.4666668 0.68181813
-0.62281621 0.05244768 1.1055276 0.90454543
-0.39578846 0.058635328 1.2359551 0.80909085
-0.38845906 0.058635328 1.2359551 0.80909085
-0.36666244 0.068216272 1.4379086 0.69545448
-0.34108135 0.068216272 1.4379086 0.69545448
-0.25277326 0.065231808 1.3750001 0.72727269
-0.23646529 0.065231808 1.3750001 0.72727269
0.0082052583 0.065642066 1.3836479 0.72272724
0.016410517 0.065642066 1.3836479 0.72272724
0.024615776 0.065642066 1.3836479 0.72272724
0.17231043 0.065642066 1.3836479 0.72272724
0.22015734 0.065231808 1.3750001 0.72727269
0.24159929 0.064426474 1.3580248 0.73636353
0.5109064 0.072986633 1.5384616 0.64999998
0.53453839 0.072479777 1.5277778 0.65454543
0.6697132 0.069580592 1.4666668 0.68181813
0.74425548 0.070047572 1.4765102 0.67727268
0.76325649 0.071000606 1.4965987 0.66818178
0.77213156 0.071000606 1.4965987 0.66818178
0.77052331 0.070047572 1.4765102 0.67727268
0.77408409 0.069580592 1.4666668 0.68181813
0.78278166 0.069580592 1.4666668 0.68181813
0.79147923 0.069580592 1.4666668 0.68181813
0.80887443 0.069580592 1.4666668 0.68181813
0.84625041 0.07052087 1.4864866 0.67272723
-0.63592809 0.05900364 1.1055276 0.90454543
-0.62281621 0.05900364 1.1055276 0.90454543
-0.40086585 0.06559623 1.2290504 0.8136363
-0.39357737 0.06559623 1.2290504 0.8136363
-0.38470039 0.075267464 1.4102565 0.70909089
-0.38371652 0.076743305 1.4379086 0.69545448
-0.24461928 0.073385783 1.3750001 0.72727269
-0.23646529 0.073385783 1.3750001 0.72727269
-0.21878991 0.072929971 1.3664597 0.73181814
0.016410517 0.073847331 1.3836479 0.72272724
0.024615776 0.073847331 1.3836479 0.72272724
0.032615904 0.073385783 1.3750001 0.72727269
0.18754144 0.073385783 1.3750001 0.72727269
0.26575923 0.072479784 1.3580248 0.73636353
0.47282115 0.078803524 1.4765102 0.67727268
0.53411275 0.078803524 1.4765102 0.67727268
0.62622535 0.078278169 1.4666668 0.68181813
0.63492292 0.078278169 1.4666668 0.68181813
0.65231806 0.078278169 1.4666668 0.68181813
0.93188292 0.083869465 1.5714287 0.63636363
0.978477 0.086336203 1.6176471 0.61818182
-0.62281621 0.065559596 1.1055276 0.90454543
-0.47502133 0.066904411 1.1282052 0.88636357
-0.41085225 0.072079346 1.2154697 0.8227272
-0.40815431 0.072884701 1.2290504 0.8136363
-0.22831132 0.081539758 1.3750001 0.72727269
-0.21878991 0.081033297 1.3664597 0.73181814
-0.21068658 0.081033297 1.3664597 0.73181814
-0.20133273 0.080533095 1.3580248 0.73636353
0.016307952 0.081539758 1.3750001 0.72727269
0.024461927 0.081539758 1.3750001 0.72727269
0.032413319 0.081033297 1.3664597 0.73181814
0.60416037 0.087559469 1.4765102 0.67727268
0.62167221 0.087559469 1.4765102 0.67727268
0.62622535 0.086975746 1.4666668 0.68181813
0.63918412 0.087559469 1.4765102 0.67727268
0.66545194 0.087559469 1.4765102 0.67727268
0.69171983 0.087559469 1.4765102 0.67727268
0.76538652 0.086975746 1.4666668 0.68181813
0.77408409 0.086975746 1.4666668 0.68181813
0.78278166 0.086975746 1.4666668 0.68181813
0.79147923 0.086975746 1.4666668 0.68181813
0.80017686 0.086975746 1.4666668 0.68181813
0.80887443 0.086975746 1.4666668 0.68181813
0.81215757 0.086399741 1.4569538 0.68636358
0.86975741 0.088750757 1.4965987 0.66818178
-0.62281621 0.072115555 1.1055276 0.90454543
-0.48171178 0.073594853 1.1282052 0.88636357
-0.41806018 0.079287276 1.2154697 0.8227272
-0.41085225 0.079287276 1.2154697 0.8227272
-0.22831132 0.089693733 1.3750001 0.72727269
-0.21068658 0.08913663 1.3664597 0.73181814
-0.20258324 0.08913663 1.3664597 0.73181814
-0.19447991 0.08913663 1.3664597 0.73181814
-0.18408975 0.088042922 1.3496933 0.74090904
0.016206659 0.08913663 1.3664597 0.73181814
0.024159929 0.088586405 1.3580248 0.73636353
0.032213237 0.088586405 1.3580248 0.73636353
0.46655861 0.095039718 1.4569538 0.68636358
0.4751986 0.095039718 1.4569538 0.68636358
0.50111848 0.095039718 1.4569538 0.68636358
0.62167221 0.096315414 1.4765102 0.67727268
0.62622535 0.095673315 1.4666668 0.68181813
0.67420793 0.096315414 1.4765102 0.67727268
0.68296385 0.096315414 1.4765102 0.67727268
0.79487765 0.095039718 1.4569538 0.68636358
0.87863249 0.097625829 1.4965987 0.66818178
0.86975741 0.095673315 1.4666668 0.68181813
0.90320957 0.084917143 1.3017752 0.7681818
-0.62281621 0.078671515 1.1055276 0.90454543
-0.42526811 0.086495213 1.2154697 0.8227272
-0.33255431 0.1023244 1.4379086 0.69545448
-0.28074446 0.099086285 1.3924052 0.71818179
-0.19327943 0.096639715 1.3580248 0.73636353
-0.18408975 0.096046828 1.3496933 0.74090904
-0.17501216 0.095461175 1.3414634 0.74545455
0.016007805 0.096046828 1.3496933 0.74090904
0.024011707 0.096046828 1.3496933 0.74090904
0.03201561 0.096046828 1.3496933 0.74090904
0.16808194 0.096046828 1.3496933 0.74090904
0.17501216 0.095461175 1.3414634 0.74545455
0.18296725 0.095461175 1.3414634 0.74545455
0.19092235 0.095461175 1.3414634 0.74545455
0.21219982 0.094311036 1.3253012 0.75454545
0.21874137 0.093746305 1.3173653 0.7590909
0.22888353 0.091553412 1.2865498 0.77727264
0.23513789 0.091021121 1.2790698 0.78181815
0.26992473 0.089974903 1.2643679 0.79090899
0.27742264 0.089974903 1.2643679 0.79090899
0.45791864 0.10367969 1.4569538 0.68636358
