# .PCD v0.7 - Point Cloud Data file format
VERSION 0.7
FIELDS x y z intensity
SIZE 4 4 4 4
TYPE F F F F
COUNT 1 1 1 1
WIDTH 1095
HEIGHT 1
VIEWPOINT 0 0 0 1 0 0 0
POINTS 1095
DATA ascii
0.18914729 -0.013273493 1.0029383 0.99707031
0.82731682 -0.031516831 2.3813953 0.41992188
1.548449 -0.052938428 4 0.25
1.0248879 -0.033880591 2.5599999 0.390625
1.0333581 -0.033880591 2.5599999 0.390625
0.98876011 -0.027657626 2.0897958 0.47851565
0.6498208 -0.016347693 1.2352232 0.80957031
-1.2425865 -0.026818413 2.7018471 0.37011716
-1.0473626 -0.023803694 2.3981264 0.41699222
-0.3557736 -0.01642032 1.6542811 0.60449219
-0.25430956 -0.012305301 1.2397095 0.80664057
-0.3075394 -0.015376971 1.5491679 0.64550781
-0.30241376 -0.015376971 1.5491679 0.64550781
-0.29216245 -0.015376971 1.5491679 0.64550781
-0.18251054 -0.0099551203 1.0029383 0.99707031
-0.10286958 -0.0099551203 1.0029383 0.99707031
0.12492286 -0.011356623 1.144134 0.87402344
0.13605331 -0.0099551203 1.0029383 0.99707031
0.13937168 -0.0099551203 1.0029383 0.99707031
0.17919217 -0.0099551203 1.0029383 0.99707031
0.18582891 -0.0099551203 1.0029383 0.99707031
0.18914729 -0.0099551203 1.0029383 0.99707031
0.21569428 -0.0099551203 1.0029383 0.99707031
0.81155843 -0.023637623 2.3813953 0.41992188
1.3094392 -0.027470753 2.7675676 0.36132812
-1.0473626 -0.015869129 2.3981264 0.41699222
-0.37497619 -0.0066367467 1.0029383 0.99707031
-0.27542499 -0.0066367467 1.0029383 0.99707031
-0.23389649 -0.0068793087 1.0395939 0.96191406
-0.10950632 -0.0066367467 1.0029383 0.99707031
-0.069685839 -0.0066367467 1.0029383 0.99707031
0.019910241 -0.0066367467 1.0029383 0.99707031
0.13605331 -0.0066367467 1.0029383 0.99707031
0.15596355 -0.0066367467 1.0029383 0.99707031
1.0248879 -0.016940296 2.5599999 0.390625
1.0418283 -0.016940296 2.5599999 0.390625
-1.5749183 -0.013234607 4 0.25
-0.37497619 -0.0033183733 1.0029383 0.99707031
-0.36833945 -0.0033183733 1.0029383 0.99707031
-0.25883314 -0.0033183733 1.0029383 0.99707031
-0.25551474 -0.0033183733 1.0029383 0.99707031
-0.25219637 -0.0033183733 1.0029383 0.99707031
-0.23389649 -0.0034396544 1.0395939 0.96191406
-0.27071661 -0.0041017667 1.2397095 0.80664057
-0.37012413 -0.0056942175 1.7210084 0.58105469
-0.36442992 -0.0056942175 1.7210084 0.58105469
-0.21858448 -0.0043716896 1.3212904 0.75683594
-0.21421279 -0.0043716896 1.3212904 0.75683594
-0.2098411 -0.0043716896 1.3212904 0.75683594
-0.29104474 -0.0074626855 2.2555065 0.4433594
-0.14343043 -0.003876498 1.1716247 0.85351568
-0.10618795 -0.0033183733 1.0029383 0.99707031
-0.10286958 -0.0033183733 1.0029383 0.99707031
-0.093154386 -0.0034501625 1.0427699 0.95898432
-0.089979112 -0.0034607348 1.0459653 0.95605463
-0.086518377 -0.0034607348 1.0459653 0.95605463
-0.083057642 -0.0034607348 1.0459653 0.95605463
-0.079353735 -0.0034501625 1.0427699 0.95898432
0.016591867 -0.0033183733 1.0029383 0.99707031
0.163653 -0.0044230539 1.3368146 0.74804688
0.16807605 -0.0044230539 1.3368146 0.74804688
0.17249911 -0.0044230539 1.3368146 0.74804688
0.3943347 -0.0080476478 2.4323041 0.41113278
0.40238237 -0.0080476478 2.4323041 0.41113278
1.2912147 -0.011036023 3.3355048 0.29980469
1.0248879 -0.0084701478 2.5599999 0.390625
0.56398541 -0.0041469517 1.253366 0.79785156
0.56813234 -0.0041469517 1.253366 0.79785156
1.3094392 -0.0091569172 2.7675676 0.36132812
-0.37165782 0 1.0029383 0.99707031
-0.36833945 0 1.0029383 0.99707031
-0.83528334 0 2.836565 0.35253906
-0.23389649 0 1.0395939 0.96191406
-0.21421279 0 1.3212904 0.75683594
-0.2098411 0 1.3212904 0.75683594
-0.31343278 0 2.2555065 0.4433594
-0.11282469 0 1.0029383 0.99707031
-0.10618795 0 1.0029383 0.99707031
-0.10286958 0 1.0029383 0.99707031
-0.089704223 0 1.0427699 0.95898432
-0.086518377 0 1.0459653 0.95605463
0.019910241 0 1.0029383 0.99707031
0.023228614 0 1.0029383 0.99707031
0.026546987 0 1.0029383 0.99707031
0.029865362 0 1.0029383 0.99707031
0.036502108 0 1.0029383 0.99707031
0.056412347 0 1.0029383 0.99707031
1.0248879 0 2.5599999 0.390625
0.56813234 0 1.253366 0.79785156
1.3094392 0 2.7675676 0.36132812
-0.76080817 0.00547344 1.6542811 0.60449219
-0.75533473 0.00547344 1.6542811 0.60449219
-0.7498613 0.00547344 1.6542811 0.60449219
-0.57894027 0.0050342632 1.5215453 0.65722656
-0.8595323 0.0083449734 2.5221674 0.39648438
-0.85118729 0.0083449734 2.5221674 0.39648438
-0.81651288 0.0093852058 2.836565 0.35253906
-0.26251307 0.0041017667 1.2397095 0.80664057
-0.27974802 0.004440445 1.3420708 0.74511719
-0.3059701 0.0074626855 2.2555065 0.4433594
-0.10618795 0.0033183733 1.0029383 0.99707031
-0.092914455 0.0033183733 1.0029383 0.99707031
-0.089596085 0.0033183733 1.0029383 0.99707031
-0.072317168 0.0036158583 1.0928495 0.91503906
-0.086406887 0.004547731 1.3744967 0.72753906
-0.068599626 0.0038110905 1.1518561 0.868164
-0.061469592 0.0036158583 1.0928495 0.91503906
0.019910241 0.0033183733 1.0029383 0.99707031
0.023228614 0.0033183733 1.0029383 0.99707031
0.026546987 0.0033183733 1.0029383 0.99707031
0.043138854 0.0033183733 1.0029383 0.99707031
0.046457227 0.0033183733 1.0029383 0.99707031
0.056412347 0.0033183733 1.0029383 0.99707031
0.12277982 0.0033183733 1.0029383 0.99707031
0.1493268 0.0033183733 1.0029383 0.99707031
0.15264519 0.0033183733 1.0029383 0.99707031
0.38628706 0.0080476478 2.4323041 0.41113278
0.26521745 0.0037354571 1.1289967 0.88574219
1.1514108 0.013234607 4 0.25
1.1646454 0.013234607 4 0.25
1.17788 0.013234607 4 0.25
1.2683049 0.0088692652 2.6806283 0.37304688
-0.74438787 0.01094688 1.6542811 0.60449219
-1.3022507 0.022072047 3.3355048 0.29980469
-1.2912147 0.022072047 3.3355048 0.29980469
-0.86671287 0.015758416 2.3813953 0.41992188
-0.8595323 0.016689947 2.5221674 0.39648438
-0.85118729 0.016689947 2.5221674 0.39648438
-0.82589811 0.018770412 2.836565 0.35253906
-0.81651288 0.018770412 2.836565 0.35253906
-0.30179957 0.0071857041 1.0858961 0.92089838
-0.32851508 0.0079160267 1.1962616 0.8359375
-0.27086714 0.00888089 1.3420708 0.74511719
-0.092914455 0.0066367467 1.0029383 0.99707031
-0.089596085 0.0066367467 1.0029383 0.99707031
-0.086277708 0.0066367467 1.0029383 0.99707031
-0.079596907 0.0069214697 1.0459653 0.95605463
-0.061469592 0.0072317165 1.0928495 0.91503906
0.019910241 0.0066367467 1.0029383 0.99707031
0.023228614 0.0066367467 1.0029383 0.99707031
0.043138854 0.0066367467 1.0029383 0.99707031
0.046457227 0.0066367467 1.0029383 0.99707031
0.12941657 0.0066367467 1.0029383 0.99707031
0.13937168 0.0066367467 1.0029383 0.99707031
0.26521745 0.0074709142 1.1289967 0.88574219
0.66566402 0.017068308 2.579345 0.38769534
1.1514108 0.026469214 4 0.25
1.1646454 0.026469214 4 0.25
0.49425805 0.0079719042 1.2047058 0.83007818
-1.3022507 0.03310807 3.3355048 0.29980469
-0.86671287 0.023637623 2.3813953 0.41992188
-0.85883367 0.023637623 2.3813953 0.41992188
-0.8595323 0.025034921 2.5221674 0.39648438
-0.30179957 0.010778557 1.0858961 0.92089838
-0.32851508 0.01187404 1.1962616 0.8359375
-0.29102102 0.010778557 1.0858961 0.92089838
-0.26642668 0.013321334 1.3420708 0.74511719
-0.16591868 0.0099551203 1.0029383 0.99707031
-0.16260029 0.0099551203 1.0029383 0.99707031
-0.082959339 0.0099551203 1.0029383 0.99707031
-0.079640962 0.0099551203 1.0029383 0.99707031
-0.10173024 0.013269162 1.3368146 0.74804688
-0.10005008 0.013643193 1.3744967 0.72753906
-0.095502347 0.013643193 1.3744967 0.72753906
0.019910241 0.0099551203 1.0029383 0.99707031
0.023228614 0.0099551203 1.0029383 0.99707031
0.046457227 0.0099551203 1.0029383 0.99707031
0.12609819 0.0099551203 1.0029383 0.99707031
0.12941657 0.0099551203 1.0029383 0.99707031
0.14600843 0.0099551203 1.0029383 0.99707031
0.1493268 0.0099551203 1.0029383 0.99707031
0.26521745 0.011206371 1.1289967 0.88574219
0.26895291 0.011206371 1.1289967 0.88574219
0.80263823 0.023153026 2.3325741 0.42871091
0.8103559 0.023153026 2.3325741 0.42871091
0.73984152 0.020743219 2.0897958 0.47851565
0.4902721 0.011957856 1.2047058 0.83007818
0.50222993 0.011957856 1.2047058 0.83007818
0.43138856 0.0099551203 1.0029383 0.99707031
1.1112213 0.023312334 2.3486238 0.42578128
1.1189921 0.023312334 2.3486238 0.42578128
-0.67653805 0.021477398 1.622821 0.61621094
-0.59404308 0.020137053 1.5215453 0.65722656
-0.58900881 0.020137053 1.5215453 0.65722656
-0.58397454 0.020137053 1.5215453 0.65722656
-0.86671287 0.031516831 2.3813953 0.41992188
-0.85883367 0.031516831 2.3813953 0.41992188
-0.30400532 0.01600028 1.2089728 0.82714844
-0.16260029 0.013273493 1.0029383 0.99707031
-0.13937168 0.013273493 1.0029383 0.99707031
0.0033183733 0.013273493 1.0029383 0.99707031
0.019910241 0.013273493 1.0029383 0.99707031
0.046457227 0.013273493 1.0029383 0.99707031
0.0497756 0.013273493 1.0029383 0.99707031
0.12609819 0.013273493 1.0029383 0.99707031
0.14600843 0.013273493 1.0029383 0.99707031
0.65712988 0.034136616 2.579345 0.38769534
0.66566402 0.034136616 2.579345 0.38769534
0.71909827 0.027657626 2.0897958 0.47851565
0.49425805 0.015943808 1.2047058 0.83007818
0.43138856 0.013273493 1.0029383 0.99707031
0.4380253 0.013273493 1.0029383 0.99707031
1.1112213 0.031083113 2.3486238 0.42578128
1.1189921 0.031083113 2.3486238 0.42578128
-0.67653805 0.026846748 1.622821 0.61621094
-1.6278566 0.066173032 4 0.25
-1.614622 0.066173032 4 0.25
-0.15928192 0.016591867 1.0029383 0.99707031
-0.15596355 0.016591867 1.0029383 0.99707031
-0.14600843 0.016591867 1.0029383 0.99707031
-0.13937168 0.016591867 1.0029383 0.99707031
-0.069409668 0.021690521 1.3111396 0.76269531
0.019910241 0.016591867 1.0029383 0.99707031
0.026546987 0.016591867 1.0029383 0.99707031
0.043138854 0.016591867 1.0029383 0.99707031
0.086277708 0.016591867 1.0029383 0.99707031
0.25219637 0.016591867 1.0029383 0.99707031
0.78720289 0.038588379 2.3325741 0.42871091
0.71909827 0.034572031 2.0897958 0.47851565
0.8103559 0.038588379 2.3325741 0.42871091
-0.68190736 0.032216098 1.622821 0.61621094
-0.67653805 0.032216098 1.622821 0.61621094
-1.6013874 0.07940764 4 0.25
-0.58900881 0.030205581 1.5215453 0.65722656
-0.13955392 0.023258988 1.1716247 0.85351568
-0.13567743 0.023258988 1.1716247 0.85351568
-0.13180093 0.023258988 1.1716247 0.85351568
-0.092884138 0.026538324 1.3368146 0.74804688
-0.069409668 0.026028626 1.3111396 0.76269531
-0.06507156 0.026028626 1.3111396 0.76269531
0.12277982 0.019910241 1.0029383 0.99707031
0.12609819 0.019910241 1.0029383 0.99707031
0.13937168 0.019910241 1.0029383 0.99707031
0.14269006 0.019910241 1.0029383 0.99707031
0.21270329 0.022789638 1.1479821 0.87109369
0.24555963 0.019910241 1.0029383 0.99707031
0.78720289 0.046306051 2.3325741 0.42871091
1.0264671 0.043068551 2.1694915 0.4609375
1.0336453 0.043068551 2.1694915 0.4609375
-1.6278566 0.092642248 4 0.25
-0.58900881 0.035239846 1.5215453 0.65722656
-0.30529037 0.023228614 1.0029383 0.99707031
-0.30197197 0.023228614 1.0029383 0.99707031
-0.15596355 0.023228614 1.0029383 0.99707031
-0.13273494 0.023228614 1.0029383 0.99707031
-0.13521332 0.027042663 1.1676168 0.85644531
-0.13180093 0.027135486 1.1716247 0.85351568
-0.10173024 0.030961379 1.3368146 0.74804688
-0.06507156 0.03036673 1.3111396 0.76269531
-0.013273493 0.023228614 1.0029383 0.99707031
0.11614307 0.023228614 1.0029383 0.99707031
0.13730362 0.02597636 1.1215773 0.8916015
0.12609819 0.023228614 1.0029383 0.99707031
0.12941657 0.023228614 1.0029383 0.99707031
0.13605331 0.023228614 1.0029383 0.99707031
0.14600843 0.023228614 1.0029383 0.99707031
0.21650156 0.026587911 1.1479821 0.87109369
0.25219637 0.023228614 1.0029383 0.99707031
0.25551474 0.023228614 1.0029383 0.99707031
0.26215151 0.023228614 1.0029383 0.99707031
1.0264671 0.050246645 2.1694915 0.4609375
1.0336453 0.050246645 2.1694915 0.4609375
-0.61240608 0.035246391 1.3315995 0.75097656
-0.60359442 0.035246391 1.3315995 0.75097656
-1.6278566 0.10587686 4 0.25
-1.614622 0.10587686 4 0.25
-0.58900881 0.040274106 1.5215453 0.65722656
-0.49188349 0.033922996 1.281602 0.78027344
-0.30529037 0.026546987 1.0029383 0.99707031
-0.30197197 0.026546987 1.0029383 0.99707031
-0.15264519 0.026546987 1.0029383 0.99707031
-0.13937168 0.026546987 1.0029383 0.99707031
-0.13605331 0.026546987 1.0029383 0.99707031
-0.13273494 0.026546987 1.0029383 0.99707031
-0.019910241 0.026546987 1.0029383 0.99707031
0.099423863 0.030591959 1.1557562 0.86523438
0.10324786 0.030591959 1.1557562 0.86523438
0.10707185 0.030591959 1.1557562 0.86523438
0.096232831 0.026546987 1.0029383 0.99707031
0.20510675 0.030386183 1.1479821 0.87109369
0.20890501 0.030386183 1.1479821 0.87109369
0.92317694 0.073854156 2.7901907 0.35839844
0.93240869 0.073854156 2.7901907 0.35839844
1.0264671 0.057424735 2.1694915 0.4609375
-0.60359442 0.039652191 1.3315995 0.75097656
-0.49188349 0.038163371 1.281602 0.78027344
-0.2986536 0.029865362 1.0029383 0.99707031
-0.43397614 0.06852255 2.3011236 0.43457031
-0.42636254 0.06852255 2.3011236 0.43457031
-0.41874892 0.06852255 2.3011236 0.43457031
-0.13273494 0.029865362 1.0029383 0.99707031
-0.12941657 0.029865362 1.0029383 0.99707031
-0.13521332 0.034769136 1.1676168 0.85644531
-0.13135007 0.034769136 1.1676168 0.85644531
-0.12748684 0.034769136 1.1676168 0.85644531
-0.054887559 0.044908002 1.5081002 0.66308594
-0.013273493 0.029865362 1.0029383 0.99707031
0.10324786 0.034415953 1.1557562 0.86523438
0.20890501 0.034184456 1.1479821 0.87109369
0.94164044 0.083085924 2.7901907 0.35839844
1.6888173 0.09382318 3.1507692 0.31738281
-1.14802 0.070001222 2.1157024 0.47265628
-1.1410199 0.070001222 2.1157024 0.47265628
-0.49612385 0.042403746 1.281602 0.78027344
-0.43397614 0.076136164 2.3011236 0.43457031
-0.15264519 0.033183735 1.0029383 0.99707031
-0.14600843 0.033183735 1.0029383 0.99707031
-0.054887559 0.049897783 1.5081002 0.66308594
0.07578554 0.044579729 1.3473685 0.74218744
0.080243513 0.044579729 1.3473685 0.74218744
0.084701486 0.044579729 1.3473685 0.74218744
0.079230793 0.037728947 1.1403118 0.87695312
0.10707185 0.038239948 1.1557562 0.86523438
0.096232831 0.033183735 1.0029383 0.99707031
0.21650156 0.037982732 1.1479821 0.87109369
1.6679677 0.10424798 3.1507692 0.31738281
1.6783925 0.10424798 3.1507692 0.31738281
-1.1550202 0.077001348 2.1157024 0.47265628
-0.49612385 0.046644121 1.281602 0.78027344
-0.28869849 0.036502108 1.0029383 0.99707031
-0.15264519 0.036502108 1.0029383 0.99707031
-0.13605331 0.036502108 1.0029383 0.99707031
-0.085293807 0.052123994 1.4321679 0.69824219
-0.054887559 0.054887559 1.5081002 0.66308594
0.092914455 0.036502108 1.0029383 0.99707031
0.12742701 0.041226387 1.1327434 0.8828125
0.13117486 0.041226387 1.1327434 0.8828125
0.13492271 0.041226387 1.1327434 0.8828125
0.13867056 0.041226387 1.1327434 0.8828125
0.12609819 0.036502108 1.0029383 0.99707031
0.18582891 0.036502108 1.0029383 0.99707031
1.6679677 0.11467278 3.1507692 0.31738281
-0.49443763 0.039820481 1.0029383 0.99707031
-0.28869849 0.039820481 1.0029383 0.99707031
-0.15264519 0.039820481 1.0029383 0.99707031
-0.1493268 0.039820481 1.0029383 0.99707031
-0.14600843 0.039820481 1.0029383 0.99707031
-0.14269006 0.039820481 1.0029383 0.99707031
-0.089596085 0.039820481 1.0029383 0.99707031
-0.065085448 0.0433903 1.0928495 0.91503906
-0.061469592 0.0433903 1.0928495 0.91503906
-0.052565098 0.057343744 1.4442878 0.69238281
-0.047786452 0.057343744 1.4442878 0.69238281
-0.046411771 0.079563037 2.0039139 0.49902344
0.18743962 0.042439159 1.0688936 0.93554688
0.18251054 0.039820481 1.0029383 0.99707031
0.18582891 0.039820481 1.0029383 0.99707031
0.44134367 0.039820481 1.0029383 0.99707031
0.494234 0.040902123 1.0301811 0.97070318
0.58768433 0.047330283 1.1920838 0.83886719
0.82239234 0.05909406 1.4883721 0.671875
0.82731682 0.05909406 1.4883721 0.671875
-1.2910808 0.10690479 2.4854369 0.40234375
-0.5267294 0.044177305 1.0270813 0.97363281
-1.2664106 0.10690479 2.4854369 0.40234375
-0.73174065 0.065154992 1.5147929 0.66015625
-0.29201686 0.043138854 1.0029383 0.99707031
-0.29302135 0.047615971 1.1070271 0.90332031
-0.13605331 0.043138854 1.0029383 0.99707031
-0.13273494 0.043138854 1.0029383 0.99707031
-0.094770893 0.06160108 1.4321679 0.69824219
-0.068482049 0.046856139 1.0893617 0.91796875
-0.054237876 0.04700616 1.0928495 0.91503906
-0.052565098 0.06212239 1.4442878 0.69238281
-0.047786452 0.06212239 1.4442878 0.69238281
-0.033880595 0.062921099 1.4628571 0.68359375
-0.029040508 0.062921099 1.4628571 0.68359375
-0.0066367467 0.043138854 1.0029383 0.99707031
0.086277708 0.043138854 1.0029383 0.99707031
0.17919217 0.043138854 1.0029383 0.99707031
0.18251054 0.043138854 1.0029383 0.99707031
1.5352144 0.17204989 4 0.25
1.548449 0.17204989 4 0.25
0.48400846 0.044310633 1.0301811 0.97070318
0.59349996 0.051096022 1.187935 0.84179688
0.50439274 0.043138854 1.0029383 0.99707031
0.54089487 0.043138854 1.0029383 0.99707031
0.84327251 0.064867117 1.5081002 0.66308594
-0.5475316 0.046457227 1.0029383 0.99707031
-0.54421324 0.046457227 1.0029383 0.99707031
-0.54089487 0.046457227 1.0029383 0.99707031
-0.5267294 0.047575559 1.0270813 0.97363281
-1.2664106 0.11512823 2.4854369 0.40234375
-0.74176449 0.070166908 1.5147929 0.66015625
-0.72171682 0.070166908 1.5147929 0.66015625
-0.55015111 0.07625857 1.6463022 0.60742188
-0.54470408 0.07625857 1.6463022 0.60742188
-0.53925705 0.07625857 1.6463022 0.60742188
-0.29201686 0.046457227 1.0029383 0.99707031
-0.29302135 0.051278736 1.1070271 0.90332031
-0.28935859 0.051278736 1.1070271 0.90332031
-0.082959339 0.046457227 1.0029383 0.99707031
-0.068482049 0.050460458 1.0893617 0.91796875
-0.064877734 0.050460458 1.0893617 0.91796875
-0.061273411 0.050460458 1.0893617 0.91796875
-0.054237876 0.050622016 1.0928495 0.91503906
-0.052565098 0.066901036 1.4442878 0.69238281
-0.046411771 0.092823543 2.0039139 0.49902344
-0.039781518 0.092823543 2.0039139 0.49902344
0.18341896 0.048450287 1.0459653 0.95605463
0.17919217 0.046457227 1.0029383 0.99707031
1.5352144 0.1852845 4 0.25
1.548449 0.1852845 4 0.25
0.585639 0.055026483 1.187935 0.84179688
0.59349996 0.055026483 1.187935 0.84179688
-0.4129082 0.055300206 1.1142546 0.89746094
-0.40184817 0.055300206 1.1142546 0.89746094
-0.54767364 0.08054024 1.622821 0.61621094
-0.29201686 0.0497756 1.0029383 0.99707031
-0.29302135 0.054941505 1.1070271 0.90332031
-0.28935859 0.054941505 1.1070271 0.90332031
-0.19246566 0.0497756 1.0029383 0.99707031
-0.087906405 0.054941505 1.1070271 0.90332031
-0.10424799 0.071078174 1.4321679 0.69824219
-0.064877734 0.054064777 1.0893617 0.91796875
-0.061469592 0.054237876 1.0928495 0.91503906
-0.055120271 0.055120271 1.1106291 0.90039062
-0.047786452 0.071679682 1.4442878 0.69238281
-0.038720679 0.072601274 1.4628571 0.68359375
-0.046411771 0.099453799 2.0039139 0.49902344
-0.039781518 0.099453799 2.0039139 0.49902344
0.497756 0.0497756 1.0029383 0.99707031
0.50107437 0.0497756 1.0029383 0.99707031
0.5475316 0.0497756 1.0029383 0.99707031
-0.4129082 0.058986887 1.1142546 0.89746094
-0.40922153 0.058986887 1.1142546 0.89746094
-0.53302199 0.098027036 1.8517179 0.54003906
-0.29302135 0.05860427 1.1070271 0.90332031
-0.068701312 0.057853732 1.0928495 0.91503906
-0.047786452 0.076458327 1.4442878 0.69238281
0.18936907 0.065867499 1.2442285 0.80371088
0.17995822 0.055371758 1.0459653 0.95605463
0.18341896 0.055371758 1.0459653 0.95605463
0.51160222 0.083526887 1.5778121 0.63378906
0.58956945 0.062887408 1.187935 0.84179688
0.55307782 0.05860427 1.1070271 0.90332031
-0.497756 0.056412347 1.0029383 0.99707031
-0.70966113 0.097292244 1.7297298 0.578125
-0.40922153 0.062673569 1.1142546 0.89746094
-0.40553483 0.062673569 1.1142546 0.89746094
-0.54527539 0.10415373 1.8517179 0.54003906
-0.52689534 0.10415373 1.8517179 0.54003906
-0.080580875 0.062267039 1.1070271 0.90332031
-0.071925282 0.064354196 1.144134 0.87402344
-0.057359923 0.06500791 1.1557562 0.86523438
-0.047786452 0.081236966 1.4442878 0.69238281
-0.007208637 0.061273411 1.0893617 0.91796875
0 0.056412347 1.0029383 0.99707031
0.18525234 0.06998422 1.2442285 0.80371088
0.82988423 0.12943149 2.3011236 0.43457031
0.83749783 0.12943149 2.3011236 0.43457031
0.84511143 0.12943149 2.3011236 0.43457031
0.49360234 0.05708326 1.0148662 0.98535156
0.59349996 0.066817872 1.187935 0.84179688
-0.66771972 0.089029297 1.4948905 0.66894531
-0.65782756 0.089029297 1.4948905 0.66894531
-0.6528815 0.089029297 1.4948905 0.66894531
-0.72110724 0.10301532 1.7297298 0.578125
-0.71538419 0.10301532 1.7297298 0.578125
-0.40525278 0.065716669 1.1034483 0.90625
-0.40160185 0.065716669 1.1034483 0.90625
-0.39795095 0.065716669 1.1034483 0.90625
-1.1897002 0.23276743 3.908397 0.25585938
-0.25551474 0.059730724 1.0029383 0.99707031
-0.25219637 0.059730724 1.0029383 0.99707031
-0.248878 0.059730724 1.0029383 0.99707031
-0.18914729 0.059730724 1.0029383 0.99707031
-0.18582891 0.059730724 1.0029383 0.99707031
-0.071925282 0.068139739 1.144134 0.87402344
-0.056093697 0.10096866 1.6953642 0.58984375
0.17701891 0.074100934 1.2442285 0.80371088
0.21132764 0.061353184 1.0301811 0.97070318
0.21473615 0.061353184 1.0301811 0.97070318
0.21814466 0.061353184 1.0301811 0.97070318
0.55307782 0.065929808 1.1070271 0.90332031
0.50771111 0.059730724 1.0029383 0.99707031
0.5475316 0.059730724 1.0029383 0.99707031
-0.66771972 0.093975365 1.4948905 0.66894531
-0.64793539 0.093975365 1.4948905 0.66894531
-0.39795095 0.069367595 1.1034483 0.90625
-1.2026317 0.24569896 3.908397 0.25585938
-0.19578403 0.063049093 1.0029383 0.99707031
-0.19246566 0.063049093 1.0029383 0.99707031
-0.18914729 0.063049093 1.0029383 0.99707031
-0.18582891 0.063049093 1.0029383 0.99707031
-0.17919217 0.063049093 1.0029383 0.99707031
-0.34409979 0.25145754 4 0.25
-0.076322593 0.063049093 1.0029383 0.99707031
-0.053535927 0.072655901 1.1557562 0.86523438
-0.056093697 0.10657803 1.6953642 0.58984375
-0.050484329 0.10657803 1.6953642 0.58984375
0.28143623 0.20566495 3.2715654 0.30566406
0.29226071 0.20566495 3.2715654 0.30566406
0.30308518 0.20566495 3.2715654 0.30566406
0.13937168 0.063049093 1.0029383 0.99707031
0.17356861 0.065956071 1.0491803 0.95312506
0.18106793 0.066159435 1.0524153 0.95019525
0.18398272 0.065956071 1.0491803 0.95312506
0.26360187 0.07365346 1.1716247 0.85351568
0.26747835 0.07365346 1.1716247 0.85351568
0.27135485 0.07365346 1.1716247 0.85351568
0.50116134 0.099188179 1.5778121 0.63378906
0.33642715 0.064566828 1.0270813 0.97363281
0.56040335 0.069592573 1.1070271 0.90332031
0.56406611 0.069592573 1.1070271 0.90332031
0.5475316 0.063049093 1.0029383 0.99707031
-0.49111927 0.06636747 1.0029383 0.99707031
-0.48448253 0.06636747 1.0029383 0.99707031
-0.6965 0.11805085 1.7839721 0.56054688
-0.69059747 0.11805085 1.7839721 0.56054688
-0.68469495 0.11805085 1.7839721 0.56054688
-0.39795095 0.073018521 1.1034483 0.90625
-0.35506597 0.06636747 1.0029383 0.99707031
-0.36349624 0.068584196 1.0364373 0.96484375
-1.1767687 0.25863048 3.908397 0.25585938
-0.24224126 0.06636747 1.0029383 0.99707031
-0.23892289 0.06636747 1.0029383 0.99707031
-0.23228614 0.06636747 1.0029383 0.99707031
-0.17919217 0.06636747 1.0029383 0.99707031
-0.39703822 0.26469213 4 0.25
-0.38380361 0.26469213 4 0.25
-0.37056899 0.26469213 4 0.25
-0.057166357 0.076221809 1.1518561 0.868164
-0.053355269 0.076221809 1.1518561 0.868164
0.026546987 0.06636747 1.0029383 0.99707031
0.14269006 0.06636747 1.0029383 0.99707031
0.14600843 0.06636747 1.0029383 0.99707031
0.17758586 0.069641508 1.0524153 0.95019525
0.18106793 0.069641508 1.0524153 0.95019525
0.27135485 0.077529959 1.1716247 0.85351568
0.49594092 0.10440861 1.5778121 0.63378906
0.33642715 0.067965083 1.0270813 0.97363281
0.33515573 0.06636747 1.0029383 0.99707031
0.76282877 0.13744663 2.0770791 0.48144531
0.76970112 0.13744663 2.0770791 0.48144531
0.56040335 0.073255338 1.1070271 0.90332031
0.5475316 0.06636747 1.0029383 0.99707031
0.55084997 0.06636747 1.0029383 0.99707031
-0.45572576 0.0784446 1.1289967 0.88574219
-0.45199031 0.0784446 1.1289967 0.88574219
-0.69059747 0.12395339 1.7839721 0.56054688
-0.68469495 0.12395339 1.7839721 0.56054688
-0.67879242 0.12395339 1.7839721 0.56054688
-0.36349624 0.072013408 1.0364373 0.96484375
-0.36006704 0.072013408 1.0364373 0.96484375
-0.26141372 0.072232738 1.0395939 0.96191406
-0.24224126 0.069685839 1.0029383 0.99707031
-0.23892289 0.069685839 1.0029383 0.99707031
-0.23560451 0.069685839 1.0029383 0.99707031
-0.17587379 0.069685839 1.0029383 0.99707031
-0.35733438 0.27792674 4 0.25
-0.06677711 0.073806278 1.0622407 0.94140619
-0.057166357 0.0800329 1.1518561 0.868164
0.010710409 0.074972861 1.0790305 0.92675787
0.016591867 0.069685839 1.0029383 0.99707031
0.18106793 0.073123589 1.0524153 0.95019525
0.21569428 0.069685839 1.0029383 0.99707031
0.76970112 0.14431895 2.0770791 0.48144531
0.77657342 0.14431895 2.0770791 0.48144531
0.52762139 0.069685839 1.0029383 0.99707031
0.53093976 0.069685839 1.0029383 0.99707031
-0.48448253 0.073004216 1.0029383 0.99707031
-0.36349624 0.07544262 1.0364373 0.96484375
-0.35663784 0.07544262 1.0364373 0.96484375
-0.26485339 0.075672396 1.0395939 0.96191406
-0.23892289 0.073004216 1.0029383 0.99707031
-0.23560451 0.073004216 1.0029383 0.99707031
-0.17587379 0.073004216 1.0029383 0.99707031
-0.10914554 0.10005008 1.3744967 0.72753906
-0.10058302 0.11646454 1.6 0.625
-0.095289171 0.11646454 1.6 0.625
-0.057166357 0.083843991 1.1518561 0.868164
-0.046997041 0.093994081 1.2912989 0.77441406
-0.036391616 0.080061555 1.0998926 0.90917969
0.0087096645 0.095806308 1.3161954 0.75976562
0.029865362 0.073004216 1.0029383 0.99707031
0.74664092 0.15496321 2.1288981 0.46972656
0.51102948 0.073004216 1.0029383 0.99707031
0.52762139 0.073004216 1.0029383 0.99707031
0.53093976 0.073004216 1.0029383 0.99707031
-0.49111927 0.076322593 1.0029383 0.99707031
-0.45572576 0.085915513 1.1289967 0.88574219
-0.45199031 0.085915513 1.1289967 0.88574219
-0.26141372 0.079112045 1.0395939 0.96191406
-0.24224126 0.076322593 1.0029383 0.99707031
-0.23892289 0.076322593 1.0029383 0.99707031
-0.17919217 0.076322593 1.0029383 0.99707031
-0.18207695 0.082113132 1.0790305 0.92675787
-0.071446314 0.086487643 1.136515 0.87988281
-0.095289171 0.12175839 1.6 0.625
-0.059814416 0.098266542 1.2912989 0.77441406
-0.034713723 0.079841562 1.0491803 0.95312506
0.0035701361 0.082113132 1.0790305 0.92675787
0.18914729 0.076322593 1.0029383 0.99707031
0.32289517 0.10763173 1.4143647 0.70703125
0.32757482 0.10763173 1.4143647 0.70703125
0.76072854 0.162007 2.1288981 0.46972656
0.76777232 0.162007 2.1288981 0.46972656
0.5834775 0.089466549 1.1756601 0.85058594
0.58736736 0.089466549 1.1756601 0.85058594
0.58124721 0.087951884 1.1557562 0.86523438
0.53093976 0.076322593 1.0029383 0.99707031
-0.37829459 0.079640962 1.0029383 0.99707031
-0.32188222 0.079640962 1.0029383 0.99707031
-0.31856385 0.079640962 1.0029383 0.99707031
-0.24224126 0.079640962 1.0029383 0.99707031
-0.18564709 0.085683271 1.0790305 0.92675787
-0.10914554 0.10914554 1.3744967 0.72753906
-0.06677711 0.084350027 1.0622407 0.94140619
-0.063262522 0.084350027 1.0622407 0.94140619
-0.055541959 0.102539 1.2912989 0.77441406
-0.034085102 0.081804246 1.0301811 0.97070318
0.0087096645 0.10451597 1.3161954 0.75976562
0.033183735 0.079640962 1.0029383 0.99707031
0.17919217 0.079640962 1.0029383 0.99707031
0.18914729 0.079640962 1.0029383 0.99707031
0.19246566 0.079640962 1.0029383 0.99707031
0.19578403 0.079640962 1.0029383 0.99707031
0.33225444 0.11231136 1.4143647 0.70703125
0.25219637 0.079640962 1.0029383 0.99707031
0.27290854 0.079875663 1.0058939 0.99414057
0.75368476 0.16905078 2.1288981 0.46972656
0.53921366 0.10784274 1.3580902 0.73632812
0.54370713 0.10784274 1.3580902 0.73632812
1.1265714 0.20027937 2.5221674 0.39648438
0.5834775 0.093356401 1.1756601 0.85058594
0.58736736 0.093356401 1.1756601 0.85058594
0.58124721 0.091775879 1.1557562 0.86523438
0.53093976 0.079640962 1.0029383 0.99707031
-0.37829459 0.082959339 1.0029383 0.99707031
-0.37497619 0.082959339 1.0029383 0.99707031
-0.34511083 0.082959339 1.0029383 0.99707031
-0.31856385 0.082959339 1.0029383 0.99707031
-0.31524548 0.082959339 1.0029383 0.99707031
-0.26710844 0.087864615 1.0622407 0.94140619
-0.248878 0.082959339 1.0029383 0.99707031
-0.24224126 0.082959339 1.0029383 0.99707031
-0.18564709 0.089253403 1.0790305 0.92675787
-0.10914554 0.11369327 1.3744967 0.72753906
-0.10459781 0.11369327 1.3744967 0.72753906
-0.063262522 0.087864615 1.0622407 0.94140619
-0.063925654 0.094008312 1.136515 0.87988281
-0.064086877 0.10681146 1.2912989 0.77441406
-0.038185094 0.086784303 1.0491803 0.95312506
-0.034713723 0.086784303 1.0491803 0.95312506
0.013064496 0.1088708 1.3161954 0.75976562
0.017419329 0.1088708 1.3161954 0.75976562
0.17587379 0.082959339 1.0029383 0.99707031
0.32757482 0.11699101 1.4143647 0.70703125
0.33225444 0.11699101 1.4143647 0.70703125
0.25219637 0.082959339 1.0029383 0.99707031
0.25551474 0.082959339 1.0029383 0.99707031
0.27290854 0.083203815 1.0058939 0.99414057
0.53472024 0.11233618 1.3580902 0.73632812
0.53921366 0.11233618 1.3580902 0.73632812
1.1265714 0.20862435 2.5221674 0.39648438
1.1349164 0.20862435 2.5221674 0.39648438
1.1516063 0.20862435 2.5221674 0.39648438
0.56967372 0.093696333 1.1327434 0.8828125
0.53093976 0.082959339 1.0029383 0.99707031
0.57298064 0.088972151 1.0756303 0.92968744
-0.37829459 0.086277708 1.0029383 0.99707031
-0.34179246 0.086277708 1.0029383 0.99707031
-0.31524548 0.086277708 1.0029383 0.99707031
-0.28945085 0.096483625 1.1215773 0.8916015
-0.28202906 0.096483625 1.1215773 0.8916015
-0.16591868 0.086277708 1.0029383 0.99707031
-0.16260029 0.086277708 1.0029383 0.99707031
-0.095030934 0.10742627 1.2487805 0.80078125
-0.063049093 0.086277708 1.0029383 0.99707031
-0.067685984 0.097768642 1.136515 0.87988281
-0.037493613 0.088621266 1.0301811 0.97070318
-0.034085102 0.088621266 1.0301811 0.97070318
-0.014698739 0.095541805 1.1106291 0.90039062
-0.0073493696 0.095541805 1.1106291 0.90039062
-0.0036746848 0.095541805 1.1106291 0.90039062
0.017419329 0.11322563 1.3161954 0.75976562
0.049357787 0.091664463 1.0655568 0.9384765
0.052883342 0.091664463 1.0655568 0.9384765
0.24224126 0.086277708 1.0029383 0.99707031
0.25551474 0.086277708 1.0029383 0.99707031
0.55269402 0.11682963 1.3580902 0.73632812
0.63250309 0.12748125 1.4819102 0.67480469
0.50439274 0.086277708 1.0029383 0.99707031
0.57653952 0.09253104 1.0756303 0.92968744
0.54089487 0.086277708 1.0029383 0.99707031
0.58365732 0.09253104 1.0756303 0.92968744
-0.67114305 0.10916182 1.2219571 0.81835932
-0.65079141 0.10649314 1.1920838 0.83886719
-0.64684719 0.10649314 1.1920838 0.83886719
-0.54089487 0.089596085 1.0029383 0.99707031
-0.63895881 0.10649314 1.1920838 0.83886719
-0.51102948 0.089596085 1.0029383 0.99707031
-0.50107437 0.089596085 1.0029383 0.99707031
-0.38161296 0.089596085 1.0029383 0.99707031
-0.37829459 0.089596085 1.0029383 0.99707031
-0.49037704 0.12036527 1.3473685 0.74218744
-0.71018934 0.17591847 1.9692308 0.5078125
-0.47700313 0.12036527 1.3473685 0.74218744
-0.34179246 0.089596085 1.0029383 0.99707031
-0.32520059 0.089596085 1.0029383 0.99707031
-0.32188222 0.089596085 1.0029383 0.99707031
-0.28202906 0.10019453 1.1215773 0.8916015
-0.27831814 0.10019453 1.1215773 0.8916015
-0.16923705 0.089596085 1.0029383 0.99707031
-0.16591868 0.089596085 1.0029383 0.99707031
-0.099162713 0.11155805 1.2487805 0.80078125
-0.095030934 0.11155805 1.2487805 0.80078125
-0.071209215 0.10119203 1.1327434 0.8828125
-0.067685984 0.10152897 1.136515 0.87988281
-0.040290438 0.098894708 1.1070271 0.90332031
-0.036627669 0.098894708 1.1070271 0.90332031
-0.0073493696 0.099216491 1.1106291 0.90039062
0.056408901 0.095190018 1.0655568 0.9384765
0.056412347 0.089596085 1.0029383 0.99707031
0.12277982 0.089596085 1.0029383 0.99707031
0.16055202 0.1111514 1.2442285 0.80371088
0.33363694 0.12687601 1.4202497 0.70410156
0.33833605 0.12687601 1.4202497 0.70410156
0.25551474 0.089596085 1.0029383 0.99707031
0.6133129 0.13354394 1.4948905 0.66894531
0.50107437 0.089596085 1.0029383 0.99707031
0.50439274 0.089596085 1.0029383 0.99707031
0.58365732 0.096089922 1.0756303 0.92968744
-0.62878829 0.10356513 1.1179039 0.89453125
-0.62508959 0.10356513 1.1179039 0.89453125
-0.67922914 0.11320485 1.2219571 0.81835932
-0.6751861 0.11320485 1.2219571 0.81835932
-0.67114305 0.11320485 1.2219571 0.81835932
-0.51434791 0.092914455 1.0029383 0.99707031
-0.51102948 0.092914455 1.0029383 0.99707031
-0.50771111 0.092914455 1.0029383 0.99707031
-0.7036739 0.18243396 1.9692308 0.5078125
-0.47700313 0.12482324 1.3473685 0.74218744
-0.18582891 0.092914455 1.0029383 0.99707031
-0.16923705 0.092914455 1.0029383 0.99707031
-0.095030934 0.11568983 1.2487805 0.80078125
-0.079082467 0.11654258 1.2579852 0.79492188
-0.05834775 0.1089158 1.1756601 0.85058594
-0.054457899 0.1089158 1.1756601 0.85058594
-0.034820754 0.097498119 1.0524153 0.95019525
0.049357787 0.098715574 1.0655568 0.9384765
0.052883342 0.098715574 1.0655568 0.9384765
0.056408901 0.098715574 1.0655568 0.9384765
0.11614307 0.092914455 1.0029383 0.99707031
0.11946145 0.092914455 1.0029383 0.99707031
0.12277982 0.092914455 1.0029383 0.99707031
0.12609819 0.092914455 1.0029383 0.99707031
0.16055202 0.11526813 1.2442285 0.80371088
0.17919217 0.092914455 1.0029383 0.99707031
0.20573916 0.092914455 1.0029383 0.99707031
0.20905752 0.092914455 1.0029383 0.99707031
0.21237589 0.092914455 1.0029383 0.99707031
0.33363694 0.13157512 1.4202497 0.70410156
0.6133129 0.13849001 1.4948905 0.66894531
0.61825901 0.13849001 1.4948905 0.66894531
0.50107437 0.092914455 1.0029383 0.99707031
0.50439274 0.092914455 1.0029383 0.99707031
0.56942177 0.099648811 1.0756303 0.92968744
0.55084997 0.092914455 1.0029383 0.99707031
-0.50771111 0.096232831 1.0029383 0.99707031
-0.50107437 0.096232831 1.0029383 0.99707031
-0.71018934 0.18894947 1.9692308 0.5078125
-0.17587379 0.096232831 1.0029383 0.99707031
-0.17255542 0.096232831 1.0029383 0.99707031
-0.16260029 0.096232831 1.0029383 0.99707031
-0.15928192 0.096232831 1.0029383 0.99707031
-0.099526837 0.12026159 1.253366 0.79785156
-0.095379889 0.12026159 1.253366 0.79785156
-0.079082467 0.12070481 1.2579852 0.79492188
-0.07492023 0.12070481 1.2579852 0.79492188
-0.04923204 0.12979355 1.3527081 0.73925781
0.052883342 0.10224113 1.0655568 0.9384765
0.056408901 0.10224113 1.0655568 0.9384765
0.082959339 0.096232831 1.0029383 0.99707031
0.11946145 0.096232831 1.0029383 0.99707031
0.16055202 0.11938484 1.2442285 0.80371088
0.20905752 0.096232831 1.0029383 0.99707031
0.21237589 0.096232831 1.0029383 0.99707031
0.32893783 0.13627423 1.4202497 0.70410156
0.27542499 0.096232831 1.0029383 0.99707031
0.28538013 0.096232831 1.0029383 0.99707031
0.50439274 0.096232831 1.0029383 0.99707031
0.50771111 0.096232831 1.0029383 0.99707031
-0.53425813 0.099551201 1.0029383 0.99707031
-0.50771111 0.099551201 1.0029383 0.99707031
-0.68858045 0.18280897 1.8417267 0.54296875
-0.49483502 0.13373919 1.3473685 0.74218744
-0.6144591 0.25602463 2.579345 0.38769534
-0.60592496 0.25602463 2.579345 0.38769534
-0.17587379 0.099551201 1.0029383 0.99707031
-0.095379889 0.12440854 1.253366 0.79785156
-0.07492023 0.12486705 1.2579852 0.79492188
-0.04923204 0.13426919 1.3527081 0.73925781
0.20573916 0.099551201 1.0029383 0.99707031
0.20905752 0.099551201 1.0029383 0.99707031
0.21237589 0.099551201 1.0029383 0.99707031
0.21569428 0.099551201 1.0029383 0.99707031
0.27874336 0.099551201 1.0029383 0.99707031
0.87192702 0.1868415 1.8823529 0.53125
0.87815511 0.1868415 1.8823529 0.53125
0.50439274 0.099551201 1.0029383 0.99707031
-0.54089487 0.10286958 1.0029383 0.99707031
-0.5375765 0.10286958 1.0029383 0.99707031
-0.51102948 0.10286958 1.0029383 0.99707031
-0.68248677 0.1889026 1.8417267 0.54296875
-0.32457039 0.17652074 1.7210084 0.58105469
-0.31887618 0.17652074 1.7210084 0.58105469
-0.10544704 0.14212427 1.3856562 0.72167969
-0.067461357 0.11618345 1.1327434 0.8828125
-0.05483564 0.12142178 1.183815 0.84472656
-0.04923204 0.13874485 1.3527081 0.73925781
-0.018463539 0.28618485 2.7901907 0.35839844
0.023365926 0.18108593 1.7655172 0.56640625
0.029207408 0.18108593 1.7655172 0.56640625
0.079640962 0.10286958 1.0029383 0.99707031
0.20905752 0.10286958 1.0029383 0.99707031
0.28206176 0.10286958 1.0029383 0.99707031
1.7469682 0.41027281 4 0.25
0.4479804 0.10286958 1.0029383 0.99707031
0.87815511 0.19306956 1.8823529 0.53125
0.50439274 0.10286958 1.0029383 0.99707031
0.50771111 0.10286958 1.0029383 0.99707031
-0.62548792 0.11914056 1.1252748 0.88867182
-0.53093976 0.10618795 1.0029383 0.99707031
-0.68248677 0.19499622 1.8417267 0.54296875
-0.6144591 0.27309293 2.579345 0.38769534
-0.60592496 0.27309293 2.579345 0.38769534
-0.31887618 0.18221496 1.7210084 0.58105469
-0.11003169 0.14670892 1.3856562 0.72167969
-0.10544704 0.14670892 1.3856562 0.72167969
-0.063798942 0.10745084 1.0148662 0.98535156
-0.060441099 0.10745084 1.0148662 0.98535156
-0.062411621 0.14265513 1.3473685 0.74218744
-0.046819914 0.13620339 1.2864321 0.77734375
-0.042563558 0.13620339 1.2864321 0.77734375
-0.031842664 0.20379305 1.9248121 0.51953125
-0.036927078 0.29541662 2.7901907 0.35839844
-0.027695308 0.29541662 2.7901907 0.35839844
0.029207408 0.18692741 1.7655172 0.56640625
0.075487562 0.14209424 1.3420708 0.74511719
0.14087565 0.22540104 2.1288981 0.46972656
0.14791943 0.22540104 2.1288981 0.46972656
0.15496321 0.22540104 2.1288981 0.46972656
0.18251054 0.10618795 1.0029383 0.99707031
0.18582891 0.10618795 1.0029383 0.99707031
0.20242079 0.10618795 1.0029383 0.99707031
1.7337335 0.42350742 4 0.25
1.7469682 0.42350742 4 0.25
-0.5375765 0.10950632 1.0029383 0.99707031
-0.54613495 0.16687457 1.5283582 0.65429688
-0.91879576 0.37900326 3.4711864 0.28808594
-0.31887618 0.18790917 1.7210084 0.58105469
-0.13459414 0.15315886 1.4027398 0.71289062
-0.10544704 0.15129358 1.3856562 0.72167969
-0.060441099 0.11080869 1.0148662 0.98535156
-0.062411621 0.14711311 1.3473685 0.74218744
-0.043050308 0.14206602 1.3011435 0.76855475
-0.044579729 0.21016158 1.9248121 0.51953125
-0.038211197 0.21016158 1.9248121 0.51953125
-0.031842664 0.21016158 1.9248121 0.51953125
-0.027695308 0.3046484 2.7901907 0.35839844
0.029207408 0.1927689 1.7655172 0.56640625
0.035048891 0.1927689 1.7655172 0.56640625
0.057725783 0.14653468 1.3420708 0.74511719
0.18582891 0.10950632 1.0029383 0.99707031
0.20242079 0.10950632 1.0029383 0.99707031
0.56412351 0.10950632 1.0029383 0.99707031
-0.63293421 0.12658684 1.1252748 0.88867182
-0.55416834 0.11282469 1.0029383 0.99707031
-0.50771111 0.11282469 1.0029383 0.99707031
-0.54613495 0.17193137 1.5283582 0.65429688
-0.54107815 0.17193137 1.5283582 0.65429688
-0.53602135 0.17193137 1.5283582 0.65429688
-0.59789282 0.23365927 2.0770791 0.48144531
-0.91879576 0.39048821 3.4711864 0.28808594
-0.90731078 0.39048821 3.4711864 0.28808594
-0.14379032 0.15277721 1.3580902 0.73632812
-0.11461635 0.15587823 1.3856562 0.72167969
-0.10293972 0.15217176 1.3527081 0.73925781
-0.060441099 0.11416652 1.0148662 0.98535156
-0.05483564 0.13317227 1.183815 0.84472656
-0.042563558 0.1447161 1.2864321 0.77734375
0.07104712 0.15097512 1.3420708 0.74511719
0.075487562 0.15097512 1.3420708 0.74511719
0.3488695 0.22810698 2.0277228 0.49316403
0.18914729 0.11282469 1.0029383 0.99707031
0.28869849 0.11282469 1.0029383 0.99707031
0.45793554 0.11282469 1.0029383 0.99707031
0.46125391 0.11282469 1.0029383 0.99707031
0.49954337 0.11554064 1.0270813 0.97363281
0.56412351 0.11282469 1.0029383 0.99707031
-0.6402632 0.13338818 1.1518561 0.868164
-0.55416834 0.11614307 1.0029383 0.99707031
-0.69966185 0.14841312 1.281602 0.78027344
-0.69542146 0.14841312 1.281602 0.78027344
-0.54089487 0.11614307 1.0029383 0.99707031
-0.5375765 0.11614307 1.0029383 0.99707031
-0.50771111 0.11614307 1.0029383 0.99707031
-0.50439274 0.11614307 1.0029383 0.99707031
-0.54107815 0.17698818 1.5283582 0.65429688
-0.61163747 0.24053159 2.0770791 0.48144531
-0.59102046 0.24053159 2.0770791 0.48144531
-0.58414817 0.24053159 2.0770791 0.48144531
-0.91879576 0.40197313 3.4711864 0.28808594
-0.16260029 0.11614307 1.0029383 0.99707031
-0.14851767 0.16244121 1.4027398 0.71289062
-0.10293972 0.1566474 1.3527081 0.73925781
-0.098464079 0.1566474 1.3527081 0.73925781
-0.059730724 0.11614307 1.0029383 0.99707031
-0.040000699 0.14000244 1.2089728 0.82714844
0.13661529 0.13661529 1.1797235 0.84765625
0.14051859 0.13661529 1.1797235 0.84765625
0.34216046 0.234816 2.0277228 0.49316403
0.18251054 0.11614307 1.0029383 0.99707031
0.18582891 0.11614307 1.0029383 0.99707031
0.18914729 0.11614307 1.0029383 0.99707031
0.44134367 0.11614307 1.0029383 0.99707031
0.45793554 0.11614307 1.0029383 0.99707031
-0.62548792 0.13403313 1.1252748 0.88867182
-0.50771111 0.11946145 1.0029383 0.99707031
-0.50439274 0.11946145 1.0029383 0.99707031
-0.50107437 0.11946145 1.0029383 0.99707031
-0.45028403 0.15738083 1.3212904 0.75683594
-0.61163747 0.24740392 2.0770791 0.48144531
-0.60476512 0.24740392 2.0770791 0.48144531
-0.59789282 0.24740392 2.0770791 0.48144531
-0.33486634 0.17728217 1.4883721 0.671875
-0.32994184 0.17728217 1.4883721 0.671875
-0.15277721 0.1617641 1.3580902 0.73632812
-0.14828376 0.1617641 1.3580902 0.73632812
-0.098464079 0.16112304 1.3527081 0.73925781
-0.059730724 0.11946145 1.0029383 0.99707031
0.02211527 0.15922995 1.3368146 0.74804688
0.026538324 0.15922995 1.3368146 0.74804688
0.17169221 0.20603064 1.7297298 0.578125
0.17741528 0.20603064 1.7297298 0.578125
0.12880871 0.14051859 1.1797235 0.84765625
0.11282469 0.11946145 1.0029383 0.99707031
0.13661529 0.14051859 1.1797235 0.84765625
0.14051859 0.14051859 1.1797235 0.84765625
0.14442189 0.14051859 1.1797235 0.84765625
0.33545142 0.24152504 2.0277228 0.49316403
0.18251054 0.11946145 1.0029383 0.99707031
0.28869849 0.11946145 1.0029383 0.99707031
-0.56080508 0.12277982 1.0029383 0.99707031
-0.55084997 0.12277982 1.0029383 0.99707031
-0.52430302 0.12277982 1.0029383 0.99707031
-0.50439274 0.12277982 1.0029383 0.99707031
-0.26878133 0.13085407 1.0688936 0.93554688
-0.32994184 0.18220668 1.4883721 0.671875
-0.21091674 0.12387174 1.0118577 0.98828119
-0.20756887 0.12387174 1.0118577 0.98828119
-0.10293972 0.16559868 1.3527081 0.73925781
-0.079614975 0.163653 1.3368146 0.74804688
-0.049981907 0.13209504 1.0790305 0.92675787
-0.035365965 0.13085407 1.0688936 0.93554688
0.02211527 0.163653 1.3368146 0.74804688
0.049667887 0.13126513 1.0722513 0.93261719
0.11660625 0.23969062 1.957935 0.51074219
0.076322593 0.12277982 1.0029383 0.99707031
0.089596085 0.12277982 1.0029383 0.99707031
0.17741528 0.21175371 1.7297298 0.578125
0.16038151 0.18544112 1.5147929 0.66015625
0.13661529 0.14442189 1.1797235 0.84765625
0.14051859 0.14442189 1.1797235 0.84765625
0.14442189 0.14442189 1.1797235 0.84765625
0.19246566 0.12277982 1.0029383 0.99707031
-0.56412351 0.12609819 1.0029383 0.99707031
-0.50107437 0.12609819 1.0029383 0.99707031
-0.45902741 0.16612421 1.3212904 0.75683594
-0.26170814 0.13439067 1.0688936 0.93554688
-0.32994184 0.18713118 1.4883721 0.671875
-0.21426463 0.12721963 1.0118577 0.98828119
-0.21091674 0.12721963 1.0118577 0.98828119
-0.4127585 0.32676715 2.5989847 0.38476562
-0.39556023 0.32676715 2.5989847 0.38476562
-0.065504909 0.13828814 1.0998926 0.90917969
-0.08193031 0.18313834 1.4566145 0.68652344
-0.049981907 0.13566518 1.0790305 0.92675787
-0.046411771 0.13566518 1.0790305 0.92675787
-0.035365965 0.13439067 1.0688936 0.93554688
0.097171873 0.24616875 1.957935 0.51074219
0.074898578 0.16742036 1.3315995 0.75097656
0.076322593 0.12609819 1.0029383 0.99707031
0.089596085 0.12609819 1.0029383 0.99707031
0.18251054 0.12609819 1.0029383 0.99707031
0.18914729 0.12609819 1.0029383 0.99707031
0.73768014 0.20022747 1.592535 0.62792969
-0.70390218 0.16537462 1.281602 0.78027344
-0.69966185 0.16537462 1.281602 0.78027344
-0.69542146 0.16537462 1.281602 0.78027344
-0.50771111 0.12941657 1.0029383 0.99707031
-0.26524475 0.13792726 1.0688936 0.93554688
-0.15442812 0.18250597 1.4143647 0.70703125
-0.035365965 0.13792726 1.0688936 0.93554688
0.0086651137 0.33793941 2.6189258 0.38183594
0.017330227 0.33793941 2.6189258 0.38183594
0.01464579 0.19039527 1.4755043 0.67773438
0.024409648 0.19039527 1.4755043 0.67773438
0.088115975 0.17182615 1.3315995 0.75097656
0.16744938 0.21768421 1.6869851 0.59277344
0.17303103 0.21768421 1.6869851 0.59277344
0.55154455 0.43898442 3.4019933 0.29394531
0.56280053 0.43898442 3.4019933 0.29394531
0.18914729 0.12941657 1.0029383 0.99707031
0.28203696 0.14101848 1.0928495 0.91503906
0.27210662 0.12941657 1.0029383 0.99707031
0.27787444 0.13056751 1.0118577 0.98828119
0.73768014 0.20549661 1.592535 0.62792969
0.74294925 0.20549661 1.592535 0.62792969
-0.5375765 0.13273494 1.0029383 0.99707031
-0.50771111 0.13273494 1.0029383 0.99707031
-0.50439274 0.13273494 1.0029383 0.99707031
-0.49443763 0.13273494 1.0029383 0.99707031
-0.59052444 0.23859572 1.8028169 0.5546875
-0.5845595 0.23859572 1.8028169 0.5546875
-0.57859462 0.23859572 1.8028169 0.5546875
-0.36681744 0.26677632 2.015748 0.49609375
-0.40415937 0.34396541 2.5989847 0.38476562
-0.15956907 0.14843634 1.1215773 0.8916015
-0.15585816 0.14843634 1.1215773 0.8916015
-0.09156917 0.1927772 1.4566145 0.68652344
-0.08674974 0.1927772 1.4566145 0.68652344
-0.051445588 0.14698739 1.1106291 0.90039062
-0.027500482 0.22000386 1.6623377 0.6015625
-0.022000385 0.22000386 1.6623377 0.6015625
0.0086651137 0.34660453 2.6189258 0.38183594
0.017330227 0.34660453 2.6189258 0.38183594
0.024409648 0.19527718 1.4755043 0.67773438
0.036000628 0.1600028 1.2089728 0.82714844
0.097171873 0.25912499 1.957935 0.51074219
0.10365 0.25912499 1.957935 0.51074219
0.15070444 0.22326586 1.6869851 0.59277344
0.16038151 0.20047688 1.5147929 0.66015625
0.16539343 0.20047688 1.5147929 0.66015625
0.55154455 0.45024043 3.4019933 0.29394531
0.56280053 0.45024043 3.4019933 0.29394531
0.57405657 0.45024043 3.4019933 0.29394531
0.28203696 0.14463434 1.0928495 0.91503906
0.28565282 0.14463434 1.0928495 0.91503906
0.27117866 0.13391539 1.0118577 0.98828119
0.27210662 0.13273494 1.0029383 0.99707031
0.27542499 0.13273494 1.0029383 0.99707031
0.28122234 0.13391539 1.0118577 0.98828119
-0.69677311 0.17854811 1.3161954 0.75976562
-0.69241828 0.17854811 1.3161954 0.75976562
-0.68806344 0.17854811 1.3161954 0.75976562
-0.44230542 0.18134522 1.3368146 0.74804688
-0.59052444 0.24456061 1.8028169 0.5546875
-0.57859462 0.24456061 1.8028169 0.5546875
-0.29533523 0.13605331 1.0029383 0.99707031
-0.37348685 0.27344573 2.015748 0.49609375
-0.36681744 0.27344573 2.015748 0.49609375
-0.36014804 0.27344573 2.015748 0.49609375
-0.53979248 0.47088283 3.4711864 0.28808594
-0.52830756 0.47088283 3.4711864 0.28808594
-0.15585816 0.15214725 1.1215773 0.8916015
-0.20499183 0.23346291 1.7210084 0.58105469
-0.09156917 0.19759664 1.4566145 0.68652344
-0.08674974 0.19759664 1.4566145 0.68652344
-0.054941505 0.15017344 1.1070271 0.90332031
-0.051278736 0.15017344 1.1070271 0.90332031
-0.016500289 0.22550395 1.6623377 0.6015625
0.024409648 0.20015912 1.4755043 0.67773438
0.03200056 0.16400287 1.2089728 0.82714844
0.036000628 0.16400287 1.2089728 0.82714844
0.040000699 0.16400287 1.2089728 0.82714844
0.16186774 0.2288475 1.6869851 0.59277344
0.27542499 0.13605331 1.0029383 0.99707031
0.28206176 0.13605331 1.0029383 0.99707031
-1.3115069 0.35309801 2.5409429 0.39355469
-0.42903626 0.18576828 1.3368146 0.74804688
-0.31856385 0.13937168 1.0029383 0.99707031
-0.35568595 0.25320017 1.822064 0.54882812
-0.34362879 0.25320017 1.822064 0.54882812
-0.53979248 0.48236778 3.4711864 0.28808594
-0.52830756 0.48236778 3.4711864 0.28808594
-0.15585816 0.15585816 1.1215773 0.8916015
-0.20499183 0.23915714 1.7210084 0.58105469
-0.086277708 0.13937168 1.0029383 0.99707031
-0.09156917 0.20241606 1.4566145 0.68652344
-0.08674974 0.20241606 1.4566145 0.68652344
-0.055120271 0.15433677 1.1106291 0.90039062
-0.051445588 0.15433677 1.1106291 0.90039062
-0.026546987 0.13937168 1.0029383 0.99707031
-0.022000385 0.23100404 1.6623377 0.6015625
-0.016500289 0.23100404 1.6623377 0.6015625
0.23242624 0.37545779 2.7018471 0.37011716
0.18251054 0.13937168 1.0029383 0.99707031
0.19578403 0.13937168 1.0029383 0.99707031
0.27198496 0.14102924 1.0148662 0.98535156
0.27874336 0.13937168 1.0029383 0.99707031
0.28206176 0.13937168 1.0029383 0.99707031
-0.70601976 0.17963816 1.2626387 0.79199219
