# .PCD v0.7 - Point Cloud Data file format
VERSION 0.7
FIELDS x y z intensity
SIZE 4 4 4 4
TYPE F F F F
COUNT 1 1 1 1
WIDTH 1081
HEIGHT 1
VIEWPOINT 0 0 0 1 0 0 0
POINTS 1081
DATA ascii
-0.56509852 -0.14441407 2.0614035 0.48510638
-0.57274163 -0.14969383 2.1367683 0.46799645
-0.5409556 -0.16813485 2.4000001 0.41666666
-0.42068446 -0.14441407 2.0614035 0.48510638
-0.4072682 -0.16150291 2.3053341 0.43377662
-0.40937179 -0.16813485 2.4000001 0.41666666
-0.40206158 -0.16813485 2.4000001 0.41666666
-0.28509822 -0.16813485 2.4000001 0.41666666
0.030324792 -0.13949405 1.991174 0.50221628
0.042454712 -0.13949405 1.991174 0.50221628
0.056509849 -0.14441407 2.0614035 0.48510638
0.18181935 -0.13489823 1.925572 0.51932621
0.19354963 -0.13489823 1.925572 0.51932621
0.46785349 -0.16813485 2.4000001 0.41666666
0.48450872 -0.16150291 2.3053341 0.43377662
0.51259619 -0.16150291 2.3053341 0.43377662
0.50114894 -0.14969383 2.1367683 0.46799645
0.49267179 -0.13489823 1.925572 0.51932621
0.49853691 -0.13489823 1.925572 0.51932621
0.49967 -0.13059556 1.8641548 0.53643614
0.78950274 -0.16813485 2.4000001 0.41666666
0.79681295 -0.16813485 2.4000001 0.41666666
0.80412316 -0.16813485 2.4000001 0.41666666
0.75660539 -0.15537432 2.2178531 0.45088649
0.73545229 -0.14969383 2.1367683 0.46799645
0.72207034 -0.14441407 2.0614035 0.48510638
-0.53843921 -0.10211778 1.5239125 0.65620565
-0.52915579 -0.10211778 1.5239125 0.65620565
-0.5337829 -0.107736 1.6077538 0.62198579
-0.55575866 -0.12105635 1.8065344 0.55354607
-0.57010609 -0.1334291 1.991174 0.50221628
-0.55797619 -0.1334291 1.991174 0.50221628
-0.56509852 -0.13813519 2.0614035 0.48510638
-0.57274163 -0.14318541 2.1367683 0.46799645
-0.61405772 -0.16082464 2.4000001 0.41666666
-0.58481687 -0.16082464 2.4000001 0.41666666
-0.5409556 -0.16082464 2.4000001 0.41666666
-0.41653937 -0.14318541 2.1367683 0.46799645
-0.41207972 -0.14861892 2.2178531 0.45088649
-0.4072682 -0.15448104 2.3053341 0.43377662
-0.40206158 -0.16082464 2.4000001 0.41666666
0.042454712 -0.1334291 1.991174 0.50221628
0.056509849 -0.13813519 2.0614035 0.48510638
0.18181935 -0.12903309 1.925572 0.51932621
0.19354963 -0.12903309 1.925572 0.51932621
0.23231827 -0.13813519 2.0614035 0.48510638
0.24487601 -0.13813519 2.0614035 0.48510638
0.48450872 -0.15448104 2.3053341 0.43377662
0.50114894 -0.14318541 2.1367683 0.46799645
0.49267179 -0.12903309 1.925572 0.51932621
0.49967 -0.1249175 1.8641548 0.53643614
-0.52915579 -0.097476065 1.5239125 0.65620565
-0.5337829 -0.10283891 1.6077538 0.62198579
-0.52398872 -0.10283891 1.6077538 0.62198579
-0.53894883 -0.10882621 1.7013575 0.58776593
-0.54475355 -0.11555378 1.8065344 0.55354607
-0.53374845 -0.11555378 1.8065344 0.55354607
-0.57010609 -0.12736413 1.991174 0.50221628
-0.55797619 -0.12736413 1.991174 0.50221628
-0.56509852 -0.13185632 2.0614035 0.48510638
-0.57274163 -0.13667698 2.1367683 0.46799645
-0.56623322 -0.13667698 2.1367683 0.46799645
-0.61405772 -0.15351443 2.4000001 0.41666666
-0.5409556 -0.15351443 2.4000001 0.41666666
-0.41207972 -0.14186351 2.2178531 0.45088649
-0.4072682 -0.14745918 2.3053341 0.43377662
-0.40206158 -0.15351443 2.4000001 0.41666666
0.19354963 -0.12316795 1.925572 0.51932621
0.23231827 -0.13185632 2.0614035 0.48510638
0.23859714 -0.13185632 2.0614035 0.48510638
0.24487601 -0.13185632 2.0614035 0.48510638
0.25065273 -0.097476065 1.5239125 0.65620565
0.4946405 -0.13667698 2.1367683 0.46799645
0.50114894 -0.13667698 2.1367683 0.46799645
0.47913173 -0.12736413 1.991174 0.50221628
0.49126166 -0.12736413 1.991174 0.50221628
0.49267179 -0.12316795 1.925572 0.51932621
0.49853691 -0.12316795 1.925572 0.51932621
0.49967 -0.11923943 1.8641548 0.53643614
0.51173818 -0.11555378 1.8065344 0.55354607
0.53925097 -0.11555378 1.8065344 0.55354607
0.74309456 -0.14186351 2.2178531 0.45088649
-0.53379041 -0.095319711 1.5647109 0.63909572
-0.54888183 -0.10071227 1.6532317 0.60487586
-0.53881061 -0.10071227 1.6532317 0.60487586
-0.55510813 -0.10675156 1.7523692 0.570656
-0.52858448 -0.10364401 1.7013575 0.58776593
-0.54475355 -0.11005122 1.8065344 0.55354607
-0.53374845 -0.11005122 1.8065344 0.55354607
-0.57010609 -0.12129917 1.991174 0.50221628
-0.55797619 -0.12129917 1.991174 0.50221628
-0.56509852 -0.12557745 2.0614035 0.48510638
-0.57274163 -0.13016856 2.1367683 0.46799645
-0.58772027 -0.1351081 2.2178531 0.45088649
-0.58481687 -0.14620422 2.4000001 0.41666666
-0.57750666 -0.14620422 2.4000001 0.41666666
-0.5409556 -0.14620422 2.4000001 0.41666666
-0.40206158 -0.14620422 2.4000001 0.41666666
0.22951585 -0.10675156 1.7523692 0.570656
0.24019101 -0.10675156 1.7523692 0.570656
0.25911003 -0.10364401 1.7013575 0.58776593
0.26947442 -0.10364401 1.7013575 0.58776593
0.25065273 -0.092834346 1.5239125 0.65620565
0.27642718 -0.095319711 1.5647109 0.63909572
0.28119317 -0.095319711 1.5647109 0.63909572
0.28047338 -0.090475284 1.4851876 0.67331558
0.55449545 -0.10364401 1.7013575 0.58776593
0.55391747 -0.10071227 1.6532317 0.60487586
0.55895305 -0.10071227 1.6532317 0.60487586
0.55826837 -0.097941816 1.6077538 0.62198579
0.56316549 -0.097941816 1.6077538 0.62198579
-0.54888183 -0.095676653 1.6532317 0.60487586
-0.53881061 -0.095676653 1.6532317 0.60487586
-0.55510813 -0.10141398 1.7523692 0.570656
-0.54443294 -0.10141398 1.7523692 0.570656
-0.54475355 -0.10454866 1.8065344 0.55354607
-0.55797619 -0.11523422 1.991174 0.50221628
-0.57274163 -0.12366012 2.1367683 0.46799645
-0.58481687 -0.13889401 2.4000001 0.41666666
-0.57750666 -0.13889401 2.4000001 0.41666666
-0.5409556 -0.13889401 2.4000001 0.41666666
0.23319903 -0.098461807 1.7013575 0.58776593
0.25911003 -0.098461807 1.7013575 0.58776593
0.26947442 -0.098461807 1.7013575 0.58776593
0.27850303 -0.088192627 1.5239125 0.65620565
0.28047338 -0.085951522 1.4851876 0.67331558
0.27793443 -0.083821498 1.4483821 0.69042552
0.36190113 -0.085951522 1.4851876 0.67331558
0.49267179 -0.11143766 1.925572 0.51932621
0.51173818 -0.10454866 1.8065344 0.55354607
0.65928161 -0.11929857 2.0614035 0.48510638
0.55895305 -0.095676653 1.6532317 0.60487586
0.56316549 -0.093044728 1.6077538 0.62198579
-0.53881061 -0.090641037 1.6532317 0.60487586
-0.54443294 -0.096076407 1.7523692 0.570656
-0.56509852 -0.1130197 2.0614035 0.48510638
-0.5409556 -0.13158379 2.4000001 0.41666666
-0.51902497 -0.13158379 2.4000001 0.41666666
0.23319903 -0.093279608 1.7013575 0.58776593
0.25911003 -0.093279608 1.7013575 0.58776593
0.26947442 -0.093279608 1.7013575 0.58776593
0.27642718 -0.085787743 1.5647109 0.63909572
0.27850303 -0.083550908 1.5239125 0.65620565
0.28314474 -0.083550908 1.5239125 0.65620565
0.28047338 -0.08142776 1.4851876 0.67331558
0.27793443 -0.079409838 1.4483821 0.69042552
0.2823461 -0.079409838 1.4483821 0.69042552
0.27982324 -0.077489518 1.4133568 0.70753545
0.28412822 -0.077489518 1.4133568 0.70753545
0.50534809 -0.10220523 1.8641548 0.53643614
0.51173818 -0.099046104 1.8065344 0.55354607
0.52274328 -0.099046104 1.8065344 0.55354607
0.6313175 -0.1171517 2.1367683 0.46799645
0.64433432 -0.1171517 2.1367683 0.46799645
0.65300274 -0.1130197 2.0614035 0.48510638
0.55967766 -0.093279608 1.7013575 0.58776593
0.56316549 -0.08814764 1.6077538 0.62198579
-0.56509852 -0.10674083 2.0614035 0.48510638
-0.5409556 -0.12427358 2.4000001 0.41666666
0.22951585 -0.090738826 1.7523692 0.570656
0.25911003 -0.088097408 1.7013575 0.58776593
0.27642718 -0.081021756 1.5647109 0.63909572
0.27386132 -0.078909196 1.5239125 0.65620565
0.27850303 -0.078909196 1.5239125 0.65620565
0.27594963 -0.076903991 1.4851876 0.67331558
0.49267179 -0.099707387 1.925572 0.51932621
0.3935675 -0.076903991 1.4851876 0.67331558
0.39263752 -0.074998178 1.4483821 0.69042552
0.6313175 -0.11064327 2.1367683 0.46799645
0.64433432 -0.11064327 2.1367683 0.46799645
0.56398869 -0.085605428 1.6532317 0.60487586
-0.57420945 -0.10808648 2.2178531 0.45088649
-0.58481687 -0.11696337 2.4000001 0.41666666
-0.5409556 -0.11696337 2.4000001 0.41666666
-0.50440454 -0.11696337 2.4000001 0.41666666
0.28412822 -0.068879567 1.4133568 0.70753545
0.29999271 -0.070586525 1.4483821 0.69042552
0.30440438 -0.070586525 1.4483821 0.69042552
0.30504757 -0.06422054 1.317757 0.75886524
0.31307513 -0.06422054 1.317757 0.75886524
-0.52915579 -0.069625758 1.5239125 0.65620565
-0.52398872 -0.073456362 1.6077538 0.62198579
-0.51419455 -0.073456362 1.6077538 0.62198579
-0.55718833 -0.087977104 1.925572 0.51932621
-0.56404114 -0.090974383 1.991174 0.50221628
-0.58772027 -0.10133108 2.2178531 0.45088649
-0.58481687 -0.10965316 2.4000001 0.41666666
-0.5409556 -0.10965316 2.4000001 0.41666666
-0.44585675 -0.10133108 2.2178531 0.45088649
-0.43234593 -0.10133108 2.2178531 0.45088649
0.23506036 -0.073456362 1.6077538 0.62198579
0.23995745 -0.073456362 1.6077538 0.62198579
0.24485455 -0.073456362 1.6077538 0.62198579
0.24136929 -0.069625758 1.5239125 0.65620565
0.2397595 -0.067856461 1.4851876 0.67331558
0.30881605 -0.066174865 1.4483821 0.69042552
0.3056531 -0.064574599 1.4133568 0.70753545
0.37999621 -0.067856461 1.4851876 0.67331558
0.38904372 -0.067856461 1.4851876 0.67331558
0.38314262 -0.064574599 1.4133568 0.70753545
0.39704919 -0.066174865 1.4483821 0.69042552
0.40146083 -0.066174865 1.4483821 0.69042552
0.39605752 -0.064574599 1.4133568 0.70753545
0.50173235 -0.080063671 1.7523692 0.570656
-0.51419455 -0.068559274 1.6077538 0.62198579
-0.55718833 -0.082111962 1.925572 0.51932621
-0.55797619 -0.084909424 1.991174 0.50221628
-0.58772027 -0.094575673 2.2178531 0.45088649
-0.58481687 -0.10234295 2.4000001 0.41666666
-0.54826581 -0.10234295 2.4000001 0.41666666
-0.5409556 -0.10234295 2.4000001 0.41666666
-0.50440454 -0.10234295 2.4000001 0.41666666
-0.44585675 -0.094575673 2.2178531 0.45088649
-0.43234593 -0.094575673 2.2178531 0.45088649
-0.44237754 -0.098306119 2.3053341 0.43377662
-0.45323306 -0.10234295 2.4000001 0.41666666
-0.44592285 -0.10234295 2.4000001 0.41666666
-0.43861264 -0.10234295 2.4000001 0.41666666
0.21765243 -0.072550811 1.7013575 0.58776593
0.23016328 -0.068559274 1.6077538 0.62198579
0.23506036 -0.068559274 1.6077538 0.62198579
0.23995745 -0.068559274 1.6077538 0.62198579
0.24485455 -0.068559274 1.6077538 0.62198579
0.23672758 -0.064984038 1.5239125 0.65620565
0.24136929 -0.064984038 1.5239125 0.65620565
0.2397595 -0.063332699 1.4851876 0.67331558
0.24880703 -0.063332699 1.4851876 0.67331558
0.416682 -0.10234295 2.4000001 0.41666666
0.42399222 -0.10234295 2.4000001 0.41666666
0.30995807 -0.060269624 1.4133568 0.70753545
0.31426305 -0.060269624 1.4133568 0.70753545
0.31104615 -0.058846567 1.3799853 0.72464538
0.38904372 -0.063332699 1.4851876 0.67331558
0.38314262 -0.060269624 1.4133568 0.70753545
0.39704919 -0.061763205 1.4483821 0.69042552
0.51240748 -0.07472609 1.7523692 0.570656
0.51774508 -0.07472609 1.7523692 0.570656
0.51822007 -0.072550811 1.7013575 0.58776593
0.52340227 -0.072550811 1.7013575 0.58776593
0.53376663 -0.072550811 1.7013575 0.58776593
0.48738033 -0.064984038 1.5239125 0.65620565
0.49666375 -0.064984038 1.5239125 0.65620565
0.48856655 -0.063332699 1.4851876 0.67331558
0.48087066 -0.061763205 1.4483821 0.69042552
0.47354704 -0.060269624 1.4133568 0.70753545
0.46656922 -0.058846567 1.3799853 0.72464538
0.48215699 -0.060269624 1.4133568 0.70753545
0.47497588 -0.058846567 1.3799853 0.72464538
0.4791792 -0.058846567 1.3799853 0.72464538
0.48338252 -0.058846567 1.3799853 0.72464538
0.48044518 -0.057489164 1.3481535 0.74175531
-0.5994373 -0.095032737 2.4000001 0.41666666
-0.5409556 -0.095032737 2.4000001 0.41666666
-0.49855244 -0.091284253 2.3053341 0.43377662
0.16981885 -0.078844465 1.991174 0.50221628
0.18194877 -0.078844465 1.991174 0.50221628
0.18737626 -0.073814891 1.8641548 0.53643614
0.20441046 -0.073814891 1.8641548 0.53643614
0.20816554 -0.069388516 1.7523692 0.570656
0.21765243 -0.067368604 1.7013575 0.58776593
0.22801682 -0.067368604 1.7013575 0.58776593
0.23016328 -0.063662179 1.6077538 0.62198579
0.23506036 -0.063662179 1.6077538 0.62198579
0.23995745 -0.063662179 1.6077538 0.62198579
0.23672758 -0.060342323 1.5239125 0.65620565
0.2397595 -0.058808934 1.4851876 0.67331558
0.24880703 -0.058808934 1.4851876 0.67331558
0.42399222 -0.095032737 2.4000001 0.41666666
0.44592285 -0.095032737 2.4000001 0.41666666
0.3362661 -0.054643244 1.3799853 0.72464538
0.38526252 -0.060342323 1.5239125 0.65620565
0.38451996 -0.058808934 1.4851876 0.67331558
0.38904372 -0.058808934 1.4851876 0.67331558
0.38381422 -0.057351548 1.4483821 0.69042552
0.39263752 -0.057351548 1.4483821 0.69042552
0.39605752 -0.055964649 1.4133568 0.70753545
0.51173818 -0.071533293 1.8065344 0.55354607
0.51240748 -0.069388516 1.7523692 0.570656
0.51774508 -0.069388516 1.7523692 0.570656
0.51822007 -0.067368604 1.7013575 0.58776593
0.52340227 -0.067368604 1.7013575 0.58776593
-0.55718833 -0.070381686 1.925572 0.51932621
-0.59447569 -0.081064865 2.2178531 0.45088649
-0.56745404 -0.081064865 2.2178531 0.45088649
-0.55472738 -0.084262386 2.3053341 0.43377662
-0.5409556 -0.087722525 2.4000001 0.41666666
-0.49855244 -0.084262386 2.3053341 0.43377662
0.16375388 -0.072779506 1.991174 0.50221628
0.16981885 -0.072779506 1.991174 0.50221628
0.17595421 -0.070381686 1.925572 0.51932621
0.18737626 -0.068136819 1.8641548 0.53643614
0.19873239 -0.068136819 1.8641548 0.53643614
0.21765243 -0.062186405 1.7013575 0.58776593
0.23016328 -0.058765091 1.6077538 0.62198579
0.23672758 -0.055700608 1.5239125 0.65620565
0.2397595 -0.054285172 1.4851876 0.67331558
0.42399222 -0.087722525 2.4000001 0.41666666
0.44592285 -0.087722525 2.4000001 0.41666666
0.45323306 -0.087722525 2.4000001 0.41666666
0.32118726 -0.054285172 1.4851876 0.67331558
0.32717797 -0.051659677 1.4133568 0.70753545
0.33148292 -0.051659677 1.4133568 0.70753545
0.33578789 -0.051659677 1.4133568 0.70753545
0.37057924 -0.052939892 1.4483821 0.69042552
0.37499091 -0.052939892 1.4483821 0.69042552
0.5062356 -0.066030733 1.8065344 0.55354607
0.51173818 -0.066030733 1.8065344 0.55354607
0.51240748 -0.064050935 1.7523692 0.570656
0.52340227 -0.062186405 1.7013575 0.58776593
0.49076694 -0.051659677 1.4133568 0.70753545
-0.52842021 -0.058713358 1.7523692 0.570656
-0.5409556 -0.080412321 2.4000001 0.41666666
-0.49855244 -0.077240519 2.3053341 0.43377662
-0.48450872 -0.077240519 2.3053341 0.43377662
0.18737626 -0.06245875 1.8641548 0.53643614
0.21765243 -0.057004206 1.7013575 0.58776593
0.23016328 -0.053867999 1.6077538 0.62198579
0.23672758 -0.051058888 1.5239125 0.65620565
0.2397595 -0.049761407 1.4851876 0.67331558
0.31932104 -0.052425843 1.5647109 0.63909572
0.3202785 -0.051058888 1.5239125 0.65620565
0.32118726 -0.049761407 1.4851876 0.67331558
0.32646266 -0.048528235 1.4483821 0.69042552
0.33087432 -0.048528235 1.4483821 0.69042552
0.32717797 -0.047354706 1.4133568 0.70753545
0.33148292 -0.047354706 1.4133568 0.70753545
0.33578789 -0.047354706 1.4133568 0.70753545
0.33206278 -0.04623659 1.3799853 0.72464538
0.32850951 -0.045170058 1.3481535 0.74175531
0.32511649 -0.044151623 1.317757 0.75886524
0.50534809 -0.06245875 1.8641548 0.53643614
0.51240748 -0.058713358 1.7523692 0.570656
0.51822007 -0.057004206 1.7013575 0.58776593
0.52340227 -0.057004206 1.7013575 0.58776593
0.51866817 -0.055391748 1.6532317 0.60487586
0.52370375 -0.055391748 1.6532317 0.60487586
0.52873939 -0.055391748 1.6532317 0.60487586
0.50130546 -0.051058888 1.5239125 0.65620565
0.51058888 -0.051058888 1.5239125 0.65620565
0.52902442 -0.052425843 1.5647109 0.63909572
0.52451408 -0.051058888 1.5239125 0.65620565
0.49507192 -0.047354706 1.4133568 0.70753545
0.49937689 -0.047354706 1.4133568 0.70753545
0.50368184 -0.047354706 1.4133568 0.70753545
-0.54068363 -0.070218652 2.3053341 0.43377662
-0.5409556 -0.073102109 2.4000001 0.41666666
-0.46344313 -0.070218652 2.3053341 0.43377662
-0.46054327 -0.073102109 2.4000001 0.41666666
0.16375388 -0.060649585 1.991174 0.50221628
0.17595421 -0.058651403 1.925572 0.51932621
0.18737626 -0.056780685 1.8641548 0.53643614
0.21765243 -0.051822007 1.7013575 0.58776593
0.23016328 -0.048970908 1.6077538 0.62198579
0.23071198 -0.045237642 1.4851876 0.67331558
0.2397595 -0.045237642 1.4851876 0.67331558
0.45323306 -0.073102109 2.4000001 0.41666666
0.31455505 -0.047659855 1.5647109 0.63909572
0.31932104 -0.047659855 1.5647109 0.63909572
0.3202785 -0.046417173 1.5239125 0.65620565
0.32118726 -0.045237642 1.4851876 0.67331558
0.32571104 -0.045237642 1.4851876 0.67331558
0.32205102 -0.044116575 1.4483821 0.69042552
0.32646266 -0.044116575 1.4483821 0.69042552
0.33087432 -0.044116575 1.4483821 0.69042552
0.32717797 -0.04304973 1.4133568 0.70753545
0.32511649 -0.040137839 1.317757 0.75886524
0.33314404 -0.040137839 1.317757 0.75886524
0.36592272 -0.04304973 1.4133568 0.70753545
0.49399194 -0.056780685 1.8641548 0.53643614
0.51102614 -0.056780685 1.8641548 0.53643614
0.5062356 -0.055025611 1.8065344 0.55354607
0.51173818 -0.055025611 1.8065344 0.55354607
0.51240748 -0.053375781 1.7523692 0.570656
0.52873939 -0.050356135 1.6532317 0.60487586
0.50594717 -0.046417173 1.5239125 0.65620565
-0.52842021 -0.048038203 1.7523692 0.570656
-0.55718833 -0.052786265 1.925572 0.51932621
-0.54545808 -0.052786265 1.925572 0.51932621
-0.58772027 -0.060798649 2.2178531 0.45088649
-0.55472738 -0.063196793 2.3053341 0.43377662
-0.54068363 -0.063196793 2.3053341 0.43377662
-0.54826581 -0.065791897 2.4000001 0.41666666
-0.5409556 -0.065791897 2.4000001 0.41666666
-0.46612296 -0.060798649 2.2178531 0.45088649
-0.46344313 -0.063196793 2.3053341 0.43377662
-0.46054327 -0.065791897 2.4000001 0.41666666
0.16375388 -0.05458463 1.991174 0.50221628
0.17595421 -0.052786265 1.925572 0.51932621
0.18737626 -0.051102616 1.8641548 0.53643614
0.21765243 -0.046639804 1.7013575 0.58776593
0.23016328 -0.04407382 1.6077538 0.62198579
0.23506036 -0.04407382 1.6077538 0.62198579
0.23672758 -0.041775454 1.5239125 0.65620565
0.2397595 -0.04071388 1.4851876 0.67331558
0.24880703 -0.04071388 1.4851876 0.67331558
0.42399222 -0.065791897 2.4000001 0.41666666
0.51173818 -0.049523052 1.8065344 0.55354607
0.51240748 -0.048038203 1.7523692 0.570656
0.51822007 -0.046639804 1.7013575 0.58776593
-0.52842021 -0.042700626 1.7523692 0.570656
-0.55718833 -0.046921123 1.925572 0.51932621
-0.61405772 -0.058481686 2.4000001 0.41666666
-0.55472738 -0.056174923 2.3053341 0.43377662
-0.54068363 -0.056174923 2.3053341 0.43377662
-0.54826581 -0.058481686 2.4000001 0.41666666
-0.5409556 -0.058481686 2.4000001 0.41666666
-0.46612296 -0.054043241 2.2178531 0.45088649
-0.46344313 -0.056174923 2.3053341 0.43377662
-0.46054327 -0.058481686 2.4000001 0.41666666
-0.43130243 -0.058481686 2.4000001 0.41666666
0.21227355 -0.048519671 1.991174 0.50221628
0.23231827 -0.05023098 2.0614035 0.48510638
0.23016328 -0.039176729 1.6077538 0.62198579
0.2397595 -0.036190115 1.4851876 0.67331558
0.51102614 -0.045424547 1.8641548 0.53643614
0.51173818 -0.044020489 1.8065344 0.55354607
0.51822007 -0.041457605 1.7013575 0.58776593
0.48273858 -0.037133738 1.5239125 0.65620565
0.53377503 -0.040284906 1.6532317 0.60487586
0.46656922 -0.033626612 1.3799853 0.72464538
-0.58772027 -0.047287837 2.2178531 0.45088649
-0.54826581 -0.051171474 2.4000001 0.41666666
-0.5409556 -0.051171474 2.4000001 0.41666666
-0.46612296 -0.047287837 2.2178531 0.45088649
-0.46054327 -0.051171474 2.4000001 0.41666666
0.23667383 -0.035249293 1.6532317 0.60487586
0.23995745 -0.034279637 1.6077538 0.62198579
0.23071198 -0.03166635 1.4851876 0.67331558
0.2397595 -0.03166635 1.4851876 0.67331558
0.26690835 -0.030134812 1.4133568 0.70753545
0.27121329 -0.030134812 1.4133568 0.70753545
0.28162286 -0.029423283 1.3799853 0.72464538
0.28744584 -0.028744582 1.3481535 0.74175531
0.29155219 -0.028744582 1.3481535 0.74175531
0.29565856 -0.028744582 1.3481535 0.74175531
0.29300621 -0.028096486 1.317757 0.75886524
0.51774508 -0.037363045 1.7523692 0.570656
0.51822007 -0.036275405 1.7013575 0.58776593
0.52858448 -0.036275405 1.7013575 0.58776593
0.47204736 -0.030881602 1.4483821 0.69042552
0.47077253 -0.029423283 1.3799853 0.72464538
0.47497588 -0.029423283 1.3799853 0.72464538
0.46812606 -0.028744582 1.3481535 0.74175531
0.47223243 -0.028744582 1.3481535 0.74175531
0.53843921 -0.032492019 1.5239125 0.65620565
-0.51419455 -0.029382546 1.6077538 0.62198579
-0.52842021 -0.032025468 1.7523692 0.570656
-0.55718833 -0.035190843 1.925572 0.51932621
-0.54545808 -0.035190843 1.925572 0.51932621
-0.58772027 -0.040532432 2.2178531 0.45088649
-0.53367704 -0.040532432 2.2178531 0.45088649
-0.54068363 -0.042131193 2.3053341 0.43377662
-0.54826581 -0.043861263 2.4000001 0.41666666
-0.5409556 -0.043861263 2.4000001 0.41666666
-0.47963378 -0.040532432 2.2178531 0.45088649
-0.45642126 -0.042131193 2.3053341 0.43377662
-0.43130243 -0.043861263 2.4000001 0.41666666
0.21976054 -0.037673235 2.0614035 0.48510638
0.23231827 -0.037673235 2.0614035 0.48510638
0.24874562 -0.031093203 1.7013575 0.58776593
0.24968845 -0.025829839 1.4133568 0.70753545
0.27121329 -0.025829839 1.4133568 0.70753545
0.27551827 -0.025829839 1.4133568 0.70753545
0.27741954 -0.025219958 1.3799853 0.72464538
0.28582618 -0.025219958 1.3799853 0.72464538
0.28333947 -0.024638213 1.3481535 0.74175531
0.29439613 -0.023551689 1.2887011 0.77597517
0.3656894 -0.025219958 1.3799853 0.72464538
0.37409604 -0.025219958 1.3799853 0.72464538
0.46656922 -0.025219958 1.3799853 0.72464538
0.46812606 -0.024638213 1.3481535 0.74175531
0.53843921 -0.027850304 1.5239125 0.65620565
0.54308093 -0.027850304 1.5239125 0.65620565
-0.51419455 -0.024485454 1.6077538 0.62198579
-0.52842021 -0.02668789 1.7523692 0.570656
-0.55718833 -0.029325701 1.925572 0.51932621
-0.56404114 -0.030324792 1.991174 0.50221628
-0.58772027 -0.033777025 2.2178531 0.45088649
-0.53367704 -0.033777025 2.2178531 0.45088649
-0.5409556 -0.036551055 2.4000001 0.41666666
-0.46612296 -0.033777025 2.2178531 0.45088649
-0.45642126 -0.035109326 2.3053341 0.43377662
-0.43130243 -0.036551055 2.4000001 0.41666666
0.21976054 -0.031394362 2.0614035 0.48510638
0.23231827 -0.031394362 2.0614035 0.48510638
0.24874562 -0.025911003 1.7013575 0.58776593
0.2397595 -0.022618821 1.4851876 0.67331558
0.24880703 -0.022618821 1.4851876 0.67331558
0.24705282 -0.022058288 1.4483821 0.69042552
0.25146449 -0.022058288 1.4483821 0.69042552
0.25399342 -0.021524865 1.4133568 0.70753545
0.27551827 -0.021524865 1.4133568 0.70753545
0.27982324 -0.021524865 1.4133568 0.70753545
0.28412822 -0.021524865 1.4133568 0.70753545
0.28162286 -0.021016631 1.3799853 0.72464538
0.28333947 -0.020531844 1.3481535 0.74175531
0.28744584 -0.020531844 1.3481535 0.74175531
0.29155219 -0.020531844 1.3481535 0.74175531
0.29956663 -0.019202989 1.2608987 0.7930851
0.46924207 -0.021524865 1.4133568 0.70753545
-0.5409556 -0.029240843 2.4000001 0.41666666
-0.53364539 -0.029240843 2.4000001 0.41666666
-0.47963378 -0.02702162 2.2178531 0.45088649
-0.46612296 -0.02702162 2.2178531 0.45088649
-0.45642126 -0.028087461 2.3053341 0.43377662
-0.43130243 -0.029240843 2.4000001 0.41666666
0.18768449 -0.023460561 1.925572 0.51932621
0.23523574 -0.018095057 1.4851876 0.67331558
0.2397595 -0.018095057 1.4851876 0.67331558
0.24705282 -0.017646631 1.4483821 0.69042552
0.28412822 -0.017219892 1.4133568 0.70753545
0.28582618 -0.016813306 1.3799853 0.72464538
0.28333947 -0.016425475 1.3481535 0.74175531
0.28497866 -0.016055135 1.317757 0.75886524
0.28899243 -0.016055135 1.317757 0.75886524
0.29300621 -0.016055135 1.317757 0.75886524
0.29047084 -0.015701126 1.2887011 0.77597517
0.45488828 -0.018566869 1.5239125 0.65620565
0.45140737 -0.015701126 1.2887011 0.77597517
0.44934994 -0.015362391 1.2608987 0.7930851
-0.56891859 -0.017595422 1.925572 0.51932621
-0.55718833 -0.017595422 1.925572 0.51932621
-0.56404114 -0.018194877 1.991174 0.50221628
-0.55191123 -0.018194877 1.991174 0.50221628
-0.58772027 -0.020266216 2.2178531 0.45088649
-0.54043239 -0.020266216 2.2178531 0.45088649
-0.53367704 -0.020266216 2.2178531 0.45088649
-0.5409556 -0.021930631 2.4000001 0.41666666
-0.46612296 -0.020266216 2.2178531 0.45088649
0.26033711 -0.019525282 2.1367683 0.46799645
0.23838122 -0.015546601 1.7013575 0.58776593
0.25392783 -0.015546601 1.7013575 0.58776593
0.23672758 -0.013925152 1.5239125 0.65620565
0.2397595 -0.013571293 1.4851876 0.67331558
0.27352276 -0.013234973 1.4483821 0.69042552
0.27551827 -0.012914919 1.4133568 0.70753545
0.28162286 -0.012609979 1.3799853 0.72464538
0.44998908 -0.013234973 1.4483821 0.69042552
0.45881239 -0.013234973 1.4483821 0.69042552
0.44348785 -0.012319107 1.3481535 0.74175531
0.44759423 -0.012319107 1.3481535 0.74175531
0.44553 -0.012041352 1.317757 0.75886524
0.43963155 -0.011775845 1.2887011 0.77597517
0.44355682 -0.011775845 1.2887011 0.77597517
-0.56891859 -0.011730281 1.925572 0.51932621
-0.55718833 -0.011730281 1.925572 0.51932621
-0.56404114 -0.012129918 1.991174 0.50221628
-0.53367704 -0.01351081 2.2178531 0.45088649
-0.54826581 -0.014620421 2.4000001 0.41666666
-0.5409556 -0.014620421 2.4000001 0.41666666
-0.46612296 -0.01351081 2.2178531 0.45088649
0.25392783 -0.010364401 1.7013575 0.58776593
0.23672758 -0.0092834346 1.5239125 0.65620565
0.2397595 -0.0090475287 1.4851876 0.67331558
0.29439613 -0.0078505632 1.2887011 0.77597517
0.30224669 -0.0078505632 1.2887011 0.77597517
0.29956663 -0.0076811956 1.2608987 0.7930851
0.30340722 -0.0076811956 1.2608987 0.7930851
0.30724782 -0.0076811956 1.2608987 0.7930851
0.31108844 -0.0076811956 1.2608987 0.7930851
0.31492904 -0.0076811956 1.2608987 0.7930851
0.31876963 -0.0076811956 1.2608987 0.7930851
0.32261023 -0.0076811956 1.2608987 0.7930851
0.35314775 -0.0082127377 1.3481535 0.74175531
0.35725409 -0.0082127377 1.3481535 0.74175531
0.36124054 -0.0080275675 1.317757 0.75886524
0.35720062 -0.0078505632 1.2887011 0.77597517
0.36505118 -0.0078505632 1.2887011 0.77597517
0.45276865 -0.0095319711 1.5647109 0.63909572
0.45753461 -0.0095319711 1.5647109 0.63909572
0.45488828 -0.0092834346 1.5239125 0.65620565
0.44557741 -0.0088233156 1.4483821 0.69042552
0.45440072 -0.0088233156 1.4483821 0.69042552
0.46322405 -0.0088233156 1.4483821 0.69042552
0.45395926 -0.0084066531 1.3799853 0.72464538
0.4517006 -0.0082127377 1.3481535 0.74175531
0.43963155 -0.0078505632 1.2887011 0.77597517
0.44355682 -0.0078505632 1.2887011 0.77597517
0.44748211 -0.0078505632 1.2887011 0.77597517
0.45140737 -0.0078505632 1.2887011 0.77597517
0.44550934 -0.0076811956 1.2608987 0.7930851
-0.55718833 -0.0058651404 1.925572 0.51932621
-0.56404114 -0.0060649589 1.991174 0.50221628
-0.57925004 -0.0065084277 2.1367683 0.46799645
-0.58772027 -0.0067554051 2.2178531 0.45088649
-0.55472738 -0.0070218653 2.3053341 0.43377662
-0.54068363 -0.0070218653 2.3053341 0.43377662
-0.54826581 -0.0073102107 2.4000001 0.41666666
-0.5409556 -0.0073102107 2.4000001 0.41666666
-0.46612296 -0.0067554051 2.2178531 0.45088649
-0.46344313 -0.0070218653 2.3053341 0.43377662
-0.38013095 -0.0073102107 2.4000001 0.41666666
0.22036909 -0.0048970911 1.6077538 0.62198579
0.24356343 -0.0051822006 1.7013575 0.58776593
0.23672758 -0.0046417173 1.5239125 0.65620565
0.2397595 -0.0045237644 1.4851876 0.67331558
0.24880703 -0.0045237644 1.4851876 0.67331558
0.28804484 -0.0038405978 1.2608987 0.7930851
0.30224669 -0.0039252816 1.2887011 0.77597517
0.35720062 -0.0039252816 1.2887011 0.77597517
0.45237643 -0.0045237644 1.4851876 0.67331558
0.44550934 -0.0038405978 1.2608987 0.7930851
-0.52842021 0 1.7523692 0.570656
-0.55718833 0 1.925572 0.51932621
-0.56404114 0 1.991174 0.50221628
-0.5713774 0 2.0614035 0.48510638
-0.57925004 0 2.1367683 0.46799645
-0.58772027 0 2.2178531 0.45088649
-0.54043239 0 2.2178531 0.45088649
-0.55472738 0 2.3053341 0.43377662
-0.54826581 0 2.4000001 0.41666666
-0.5409556 0 2.4000001 0.41666666
-0.46612296 0 2.2178531 0.45088649
0.17602012 0 1.8641548 0.53643614
0.26346081 0 2.2178531 0.45088649
0.27697161 0 2.2178531 0.45088649
0.22036909 0 1.6077538 0.62198579
0.24874562 0 1.7013575 0.58776593
0.23672758 0 1.5239125 0.65620565
0.2397595 0 1.4851876 0.67331558
0.24880703 0 1.4851876 0.67331558
0.25219959 0 1.3799853 0.72464538
0.28262028 0 1.2887011 0.77597517
0.29047084 0 1.2887011 0.77597517
0.34887609 0 1.3799853 0.72464538
0.35728273 0 1.3799853 0.72464538
0.36148608 0 1.3799853 0.72464538
0.36136046 0 1.3481535 0.74175531
0.36124054 0 1.317757 0.75886524
0.36112592 0 1.2887011 0.77597517
0.36505118 0 1.2887011 0.77597517
-0.55718833 0.0058651404 1.925572 0.51932621
-0.56404114 0.0060649589 1.991174 0.50221628
-0.5713774 0.0062788725 2.0614035 0.48510638
-0.57925004 0.0065084277 2.1367683 0.46799645
-0.58772027 0.0067554051 2.2178531 0.45088649
-0.54043239 0.0067554051 2.2178531 0.45088649
-0.55472738 0.0070218653 2.3053341 0.43377662
-0.54068363 0.0070218653 2.3053341 0.43377662
-0.54826581 0.0073102107 2.4000001 0.41666666
-0.5409556 0.0073102107 2.4000001 0.41666666
-0.47963378 0.0067554051 2.2178531 0.45088649
-0.46612296 0.0067554051 2.2178531 0.45088649
-0.45323306 0.0073102107 2.4000001 0.41666666
-0.43130243 0.0073102107 2.4000001 0.41666666
0.16212973 0.0067554051 2.2178531 0.45088649
0.16888513 0.0067554051 2.2178531 0.45088649
0.17602012 0.0056780684 1.8641548 0.53643614
0.2062086 0.0060649589 1.991174 0.50221628
0.24874562 0.0051822006 1.7013575 0.58776593
0.2397595 0.0045237644 1.4851876 0.67331558
0.24880703 0.0045237644 1.4851876 0.67331558
0.25219959 0.0042033265 1.3799853 0.72464538
0.26060623 0.0042033265 1.3799853 0.72464538
0.2729373 0.0040137838 1.317757 0.75886524
0.27695107 0.0040137838 1.317757 0.75886524
0.27476972 0.0039252816 1.2887011 0.77597517
0.27869499 0.0039252816 1.2887011 0.77597517
0.28262028 0.0039252816 1.2887011 0.77597517
0.28654554 0.0039252816 1.2887011 0.77597517
0.28420424 0.0038405978 1.2608987 0.7930851
0.28804484 0.0038405978 1.2608987 0.7930851
0.31009725 0.0039252816 1.2887011 0.77597517
0.36148608 0.0042033265 1.3799853 0.72464538
0.36989272 0.0042033265 1.3799853 0.72464538
0.36124054 0.0040137838 1.317757 0.75886524
0.36525431 0.0040137838 1.317757 0.75886524
0.36112592 0.0039252816 1.2887011 0.77597517
0.36897647 0.0039252816 1.2887011 0.77597517
0.36485681 0.0038405978 1.2608987 0.7930851
0.3686974 0.0038405978 1.2608987 0.7930851
0.46924207 0.0043049729 1.4133568 0.70753545
0.46656922 0.0042033265 1.3799853 0.72464538
0.47497588 0.0042033265 1.3799853 0.72464538
-0.52842021 0.010675156 1.7523692 0.570656
-0.55718833 0.011730281 1.925572 0.51932621
-0.56404114 0.012129918 1.991174 0.50221628
-0.5713774 0.012557745 2.0614035 0.48510638
-0.55472738 0.014043731 2.3053341 0.43377662
-0.54068363 0.014043731 2.3053341 0.43377662
-0.54826581 0.014620421 2.4000001 0.41666666
-0.5409556 0.014620421 2.4000001 0.41666666
-0.49855244 0.014043731 2.3053341 0.43377662
-0.46612296 0.01351081 2.2178531 0.45088649
-0.43861264 0.014620421 2.4000001 0.41666666
-0.38013095 0.014620421 2.4000001 0.41666666
0.14861892 0.01351081 2.2178531 0.45088649
0.15537432 0.01351081 2.2178531 0.45088649
0.16212973 0.01351081 2.2178531 0.45088649
0.17602012 0.011356137 1.8641548 0.53643614
0.2062086 0.012129918 1.991174 0.50221628
0.21833852 0.012129918 1.991174 0.50221628
0.27697161 0.01351081 2.2178531 0.45088649
0.23838122 0.010364401 1.7013575 0.58776593
0.24356343 0.010364401 1.7013575 0.58776593
0.24874562 0.010364401 1.7013575 0.58776593
0.25911003 0.010364401 1.7013575 0.58776593
0.26691398 0.0082127377 1.3481535 0.74175531
0.27102035 0.0082127377 1.3481535 0.74175531
0.27512673 0.0082127377 1.3481535 0.74175531
0.2729373 0.0080275675 1.317757 0.75886524
0.27695107 0.0080275675 1.317757 0.75886524
0.28096485 0.0080275675 1.317757 0.75886524
0.36592272 0.0086099459 1.4133568 0.70753545
0.36926812 0.0080275675 1.317757 0.75886524
0.37594911 0.007518982 1.2342707 0.81019503
0.45925796 0.0078505632 1.2887011 0.77597517
-0.56891859 0.017595422 1.925572 0.51932621
-0.55718833 0.017595422 1.925572 0.51932621
-0.56404114 0.018194877 1.991174 0.50221628
-0.5713774 0.018836617 2.0614035 0.48510638
-0.57925004 0.019525282 2.1367683 0.46799645
-0.58772027 0.020266216 2.2178531 0.45088649
-0.61405772 0.021930631 2.4000001 0.41666666
-0.5409556 0.021930631 2.4000001 0.41666666
-0.53364539 0.021930631 2.4000001 0.41666666
-0.47963378 0.020266216 2.2178531 0.45088649
-0.46612296 0.020266216 2.2178531 0.45088649
-0.43861264 0.021930631 2.4000001 0.41666666
0.17034204 0.017034205 1.8641548 0.53643614
0.28087461 0.021065596 2.3053341 0.43377662
0.26691398 0.012319107 1.3481535 0.74175531
0.30617195 0.011775845 1.2887011 0.77597517
0.31402254 0.011775845 1.2887011 0.77597517
-0.53868002 0.019588364 1.6077538 0.62198579
-0.54413104 0.020728802 1.7013575 0.58776593
-0.55718833 0.023460561 1.925572 0.51932621
-0.56404114 0.024259835 1.991174 0.50221628
-0.5713774 0.02511549 2.0614035 0.48510638
-0.57925004 0.026033711 2.1367683 0.46799645
-0.58772027 0.02702162 2.2178531 0.45088649
-0.58481687 0.029240843 2.4000001 0.41666666
-0.5409556 0.029240843 2.4000001 0.41666666
-0.53364539 0.029240843 2.4000001 0.41666666
-0.46612296 0.02702162 2.2178531 0.45088649
0.17034204 0.022712274 1.8641548 0.53643614
0.29491836 0.028087461 2.3053341 0.43377662
0.25392783 0.020728802 1.7013575 0.58776593
0.25911003 0.020728802 1.7013575 0.58776593
0.24264117 0.017646631 1.4483821 0.69042552
0.30263948 0.016813306 1.3799853 0.72464538
0.3038713 0.016425475 1.3481535 0.74175531
0.30797768 0.016425475 1.3481535 0.74175531
0.30504757 0.016055135 1.317757 0.75886524
0.30906135 0.016055135 1.317757 0.75886524
0.30617195 0.015701126 1.2887011 0.77597517
0.31009725 0.015701126 1.2887011 0.77597517
0.31402254 0.015701126 1.2887011 0.77597517
0.31492904 0.015362391 1.2608987 0.7930851
0.38722757 0.015037964 1.2342707 0.81019503
0.39474657 0.015037964 1.2342707 0.81019503
0.39850605 0.015037964 1.2342707 0.81019503
0.4173035 0.015037964 1.2342707 0.81019503
0.41603655 0.014726957 1.2087442 0.8273049
0.41971827 0.014726957 1.2087442 0.8273049
0.42340001 0.014726957 1.2087442 0.8273049
0.42708176 0.014726957 1.2087442 0.8273049
-0.53868002 0.024485454 1.6077538 0.62198579
-0.54413104 0.025911003 1.7013575 0.58776593
-0.56891859 0.029325701 1.925572 0.51932621
-0.55718833 0.029325701 1.925572 0.51932621
-0.56404114 0.030324792 1.991174 0.50221628
-0.5713774 0.031394362 2.0614035 0.48510638
-0.57925004 0.032542139 2.1367683 0.46799645
-0.58772027 0.033777025 2.2178531 0.45088649
-0.61405772 0.036551055 2.4000001 0.41666666
-0.5409556 0.036551055 2.4000001 0.41666666
-0.47287837 0.033777025 2.2178531 0.45088649
-0.46612296 0.033777025 2.2178531 0.45088649
-0.39475137 0.036551055 2.4000001 0.41666666
-0.38013095 0.036551055 2.4000001 0.41666666
-0.34407142 0.035109326 2.3053341 0.43377662
-0.33704954 0.035109326 2.3053341 0.43377662
-0.33002767 0.035109326 2.3053341 0.43377662
0.13813519 0.031394362 2.0614035 0.48510638
0.17034204 0.028390342 1.8641548 0.53643614
0.2062086 0.030324792 1.991174 0.50221628
0.2567054 0.033777025 2.2178531 0.45088649
0.29491836 0.035109326 2.3053341 0.43377662
0.25911003 0.025911003 1.7013575 0.58776593
0.26429224 0.025911003 1.7013575 0.58776593
0.24264117 0.022058288 1.4483821 0.69042552
0.29404467 0.022618821 1.4851876 0.67331558
0.29999271 0.022058288 1.4483821 0.69042552
0.30134812 0.021524865 1.4133568 0.70753545
0.30684283 0.021016631 1.3799853 0.72464538
0.31307513 0.020068919 1.317757 0.75886524
0.31402254 0.019626409 1.2887011 0.77597517
0.37829936 0.021016631 1.3799853 0.72464538
0.39010507 0.020531844 1.3481535 0.74175531
0.42246577 0.019202989 1.2608987 0.7930851
0.4173035 0.018797455 1.2342707 0.81019503
0.42106301 0.018797455 1.2342707 0.81019503
0.42482248 0.018797455 1.2342707 0.81019503
-0.53868002 0.029382546 1.6077538 0.62198579
-0.56891859 0.035190843 1.925572 0.51932621
-0.55718833 0.035190843 1.925572 0.51932621
-0.56404114 0.036389753 1.991174 0.50221628
-0.5713774 0.037673235 2.0614035 0.48510638
-0.57925004 0.039050564 2.1367683 0.46799645
-0.58772027 0.040532432 2.2178531 0.45088649
-0.61405772 0.043861263 2.4000001 0.41666666
-0.5409556 0.043861263 2.4000001 0.41666666
-0.37602744 0.036389753 1.991174 0.50221628
-0.37748879 0.039050564 2.1367683 0.46799645
-0.39475137 0.043861263 2.4000001 0.41666666
-0.38013095 0.043861263 2.4000001 0.41666666
-0.33002767 0.042131193 2.3053341 0.43377662
-0.32895949 0.043861263 2.4000001 0.41666666
0.13813519 0.037673235 2.0614035 0.48510638
0.17034204 0.034068409 1.8641548 0.53643614
0.29491836 0.042131193 2.3053341 0.43377662
0.24264117 0.026469946 1.4483821 0.69042552
0.3056531 0.025829839 1.4133568 0.70753545
0.31208405 0.024638213 1.3481535 0.74175531
0.3179478 0.023551689 1.2887011 0.77597517
0.31876963 0.023043588 1.2608987 0.7930851
0.31579724 0.022556946 1.2342707 0.81019503
0.37367958 0.024638213 1.3481535 0.74175531
0.3732819 0.024082704 1.317757 0.75886524
0.38467759 0.023551689 1.2887011 0.77597517
0.38860288 0.023551689 1.2887011 0.77597517
0.39252818 0.023551689 1.2887011 0.77597517
0.38346809 0.022556946 1.2342707 0.81019503
0.38722757 0.022556946 1.2342707 0.81019503
0.46961269 0.024082704 1.317757 0.75886524
-0.53868002 0.034279637 1.6077538 0.62198579
-0.56891859 0.041055981 1.925572 0.51932621
-0.55718833 0.041055981 1.925572 0.51932621
-0.56404114 0.042454712 1.991174 0.50221628
-0.5713774 0.043952107 2.0614035 0.48510638
-0.57925004 0.045558993 2.1367683 0.46799645
-0.58772027 0.047287837 2.2178531 0.45088649
-0.59212708 0.051171474 2.4000001 0.41666666
-0.5409556 0.051171474 2.4000001 0.41666666
-0.47287837 0.047287837 2.2178531 0.45088649
-0.37602744 0.042454712 1.991174 0.50221628
-0.37748879 0.045558993 2.1367683 0.46799645
-0.37830269 0.047287837 2.2178531 0.45088649
-0.39475137 0.051171474 2.4000001 0.41666666
-0.38013095 0.051171474 2.4000001 0.41666666
-0.32300583 0.04915306 2.3053341 0.43377662
-0.31598395 0.04915306 2.3053341 0.43377662
0.17034204 0.039746478 1.8641548 0.53643614
0.2062086 0.042454712 1.991174 0.50221628
0.26686922 0.039746478 1.8641548 0.53643614
0.24264117 0.030881602 1.4483821 0.69042552
0.29856843 0.03166635 1.4851876 0.67331558
0.30440438 0.030881602 1.4483821 0.69042552
0.3056531 0.030134812 1.4133568 0.70753545
0.31104615 0.029423283 1.3799853 0.72464538
0.31208405 0.028744582 1.3481535 0.74175531
0.31307513 0.028096486 1.317757 0.75886524
0.3179478 0.027476972 1.2887011 0.77597517
0.31876963 0.026884185 1.2608987 0.7930851
0.31579724 0.026316438 1.2342707 0.81019503
0.31955674 0.026316438 1.2342707 0.81019503
0.32331622 0.026316438 1.2342707 0.81019503
0.32031131 0.025772175 1.2087442 0.8273049
0.37778595 0.028744582 1.3481535 0.74175531
0.38346809 0.026316438 1.2342707 0.81019503
0.47951901 0.03166635 1.4851876 0.67331558
0.48404276 0.03166635 1.4851876 0.67331558
0.48087066 0.030881602 1.4483821 0.69042552
0.47785202 0.030134812 1.4133568 0.70753545
0.47077253 0.029423283 1.3799853 0.72464538
0.4791792 0.029423283 1.3799853 0.72464538
0.4763388 0.028744582 1.3481535 0.74175531
0.48044518 0.028744582 1.3481535 0.74175531
-0.56891859 0.046921123 1.925572 0.51932621
-0.55718833 0.046921123 1.925572 0.51932621
-0.56404114 0.048519671 1.991174 0.50221628
-0.5713774 0.05023098 2.0614035 0.48510638
-0.57925004 0.052067421 2.1367683 0.46799645
-0.58772027 0.054043241 2.2178531 0.45088649
-0.59212708 0.058481686 2.4000001 0.41666666
-0.5409556 0.058481686 2.4000001 0.41666666
-0.47287837 0.054043241 2.2178531 0.45088649
-0.37602744 0.048519671 1.991174 0.50221628
-0.36389753 0.048519671 1.991174 0.50221628
-0.37748879 0.052067421 2.1367683 0.46799645
-0.37830269 0.054043241 2.2178531 0.45088649
-0.38013095 0.058481686 2.4000001 0.41666666
-0.37282073 0.058481686 2.4000001 0.41666666
-0.32164928 0.058481686 2.4000001 0.41666666
0.17034204 0.045424547 1.8641548 0.53643614
0.2062086 0.048519671 1.991174 0.50221628
0.21833852 0.048519671 1.991174 0.50221628
0.30194023 0.056174923 2.3053341 0.43377662
0.26686922 0.045424547 1.8641548 0.53643614
0.27822536 0.045424547 1.8641548 0.53643614
0.30931288 0.048519671 1.991174 0.50221628
0.31537786 0.048519671 1.991174 0.50221628
0.24264117 0.035293262 1.4483821 0.69042552
0.24705282 0.035293262 1.4483821 0.69042552
0.25146449 0.035293262 1.4483821 0.69042552
0.2924282 0.037133738 1.5239125 0.65620565
0.29856843 0.036190115 1.4851876 0.67331558
0.29999271 0.035293262 1.4483821 0.69042552
0.30440438 0.035293262 1.4483821 0.69042552
0.3056531 0.034439784 1.4133568 0.70753545
0.30995807 0.034439784 1.4133568 0.70753545
0.31104615 0.033626612 1.3799853 0.72464538
0.31208405 0.032850951 1.3481535 0.74175531
0.31307513 0.03211027 1.317757 0.75886524
0.31708893 0.03211027 1.317757 0.75886524
0.32110271 0.03211027 1.317757 0.75886524
0.3179478 0.031402253 1.2887011 0.77597517
0.31876963 0.030724782 1.2608987 0.7930851
0.31955674 0.030075928 1.2342707 0.81019503
0.32331622 0.030075928 1.2342707 0.81019503
0.32031131 0.029453915 1.2087442 0.8273049
0.38189232 0.032850951 1.3481535 0.74175531
0.38860288 0.031402253 1.2887011 0.77597517
0.48528233 0.035293262 1.4483821 0.69042552
-0.55718833 0.052786265 1.925572 0.51932621
-0.56404114 0.05458463 1.991174 0.50221628
-0.5713774 0.056509849 2.0614035 0.48510638
-0.57925004 0.05857585 2.1367683 0.46799645
-0.58772027 0.060798649 2.2178531 0.45088649
-0.5409556 0.065791897 2.4000001 0.41666666
-0.53364539 0.065791897 2.4000001 0.41666666
-0.47287837 0.060798649 2.2178531 0.45088649
-0.38209239 0.05458463 1.991174 0.50221628
-0.37830269 0.060798649 2.2178531 0.45088649
-0.38744116 0.065791897 2.4000001 0.41666666
-0.38013095 0.065791897 2.4000001 0.41666666
-0.37282073 0.065791897 2.4000001 0.41666666
-0.31240451 0.05857585 2.1367683 0.46799645
-0.32300583 0.063196793 2.3053341 0.43377662
-0.32164928 0.065791897 2.4000001 0.41666666
-0.30702886 0.065791897 2.4000001 0.41666666
0.13185632 0.056509849 2.0614035 0.48510638
0.17034204 0.051102616 1.8641548 0.53643614
0.2062086 0.05458463 1.991174 0.50221628
0.28789648 0.063196793 2.3053341 0.43377662
0.30194023 0.063196793 2.3053341 0.43377662
0.26119113 0.051102616 1.8641548 0.53643614
0.26686922 0.051102616 1.8641548 0.53643614
0.32650137 0.056509849 2.0614035 0.48510638
0.24428327 0.04071388 1.4851876 0.67331558
0.24264117 0.039704919 1.4483821 0.69042552
0.25146449 0.039704919 1.4483821 0.69042552
0.29404467 0.04071388 1.4851876 0.67331558
0.30881605 0.039704919 1.4483821 0.69042552
0.30995807 0.038744759 1.4133568 0.70753545
0.31524947 0.037829936 1.3799853 0.72464538
0.3218731 0.035327535 1.2887011 0.77597517
0.31579724 0.033835419 1.2342707 0.81019503
0.31955674 0.033835419 1.2342707 0.81019503
0.32031131 0.033135653 1.2087442 0.8273049
0.3210353 0.032464243 1.184252 0.84441483
0.48215699 0.038744759 1.4133568 0.70753545
0.49178919 0.037829936 1.3799853 0.72464538
-0.55718833 0.058651403 1.925572 0.51932621
-0.56404114 0.060649585 1.991174 0.50221628
-0.5713774 0.062788725 2.0614035 0.48510638
-0.57925004 0.065084279 2.1367683 0.46799645
-0.58772027 0.067554049 2.2178531 0.45088649
-0.5409556 0.073102109 2.4000001 0.41666666
-0.53364539 0.073102109 2.4000001 0.41666666
-0.47287837 0.067554049 2.2178531 0.45088649
-0.38709927 0.058651403 1.925572 0.51932621
-0.38209239 0.060649585 1.991174 0.50221628
-0.37098038 0.065084279 2.1367683 0.46799645
-0.38744116 0.073102109 2.4000001 0.41666666
-0.37282073 0.073102109 2.4000001 0.41666666
-0.32164928 0.073102109 2.4000001 0.41666666
-0.30702886 0.073102109 2.4000001 0.41666666
-0.29971865 0.073102109 2.4000001 0.41666666
0.11696337 0.073102109 2.4000001 0.41666666
0.13158379 0.073102109 2.4000001 0.41666666
0.13813519 0.062788725 2.0614035 0.48510638
0.16466399 0.056780685 1.8641548 0.53643614
0.17034204 0.056780685 1.8641548 0.53643614
0.19407868 0.060649585 1.991174 0.50221628
0.2062086 0.060649585 1.991174 0.50221628
0.21833852 0.060649585 1.991174 0.50221628
0.24538347 0.04304973 1.4133568 0.70753545
0.32767481 0.036817394 1.2087442 0.8273049
0.4985173 0.044116575 1.4483821 0.69042552
0.48758584 0.042033263 1.3799853 0.72464538
-0.5761711 0.066714548 1.991174 0.50221628
-0.56404114 0.066714548 1.991174 0.50221628
-0.5713774 0.069067597 2.0614035 0.48510638
-0.57925004 0.071592703 2.1367683 0.46799645
-0.58772027 0.074309461 2.2178531 0.45088649
-0.5409556 0.080412321 2.4000001 0.41666666
-0.53364539 0.080412321 2.4000001 0.41666666
-0.47287837 0.074309461 2.2178531 0.45088649
-0.44257307 0.071592703 2.1367683 0.46799645
-0.38709927 0.064516544 1.925572 0.51932621
-0.36950386 0.064516544 1.925572 0.51932621
-0.36996248 0.066714548 1.991174 0.50221628
-0.37045348 0.069067597 2.0614035 0.48510638
-0.37098038 0.071592703 2.1367683 0.46799645
-0.37154728 0.074309461 2.2178531 0.45088649
-0.3058961 0.071592703 2.1367683 0.46799645
-0.31433907 0.080412321 2.4000001 0.41666666
-0.30702886 0.080412321 2.4000001 0.41666666
0.11696337 0.080412321 2.4000001 0.41666666
0.16466399 0.06245875 1.8641548 0.53643614
0.2062086 0.066714548 1.991174 0.50221628
0.26686922 0.06245875 1.8641548 0.53643614
0.24538347 0.047354706 1.4133568 0.70753545
0.25399342 0.047354706 1.4133568 0.70753545
0.25640291 0.04623659 1.3799853 0.72464538
0.381834 0.0388905 1.1607326 0.86152482
0.38890499 0.0388905 1.1607326 0.86152482
-0.5761711 0.072779506 1.991174 0.50221628
-0.56404114 0.072779506 1.991174 0.50221628
-0.5713774 0.07534647 2.0614035 0.48510638
-0.57925004 0.078101128 2.1367683 0.46799645
-0.58772027 0.081064865 2.2178531 0.45088649
-0.55557603 0.087722525 2.4000001 0.41666666
-0.5409556 0.087722525 2.4000001 0.41666666
-0.47287837 0.081064865 2.2178531 0.45088649
-0.44257307 0.078101128 2.1367683 0.46799645
-0.38709927 0.070381686 1.925572 0.51932621
-0.36996248 0.072779506 1.991174 0.50221628
-0.37045348 0.07534647 2.0614035 0.48510638
-0.37098038 0.078101128 2.1367683 0.46799645
-0.35796353 0.078101128 2.1367683 0.46799645
-0.36551052 0.087722525 2.4000001 0.41666666
-0.3058961 0.078101128 2.1367683 0.46799645
-0.31433907 0.087722525 2.4000001 0.41666666
-0.30702886 0.087722525 2.4000001 0.41666666
0.13158379 0.087722525 2.4000001 0.41666666
0.16466399 0.068136819 1.8641548 0.53643614
0.2062086 0.072779506 1.991174 0.50221628
0.30324793 0.072779506 1.991174 0.50221628
0.31537786 0.072779506 1.991174 0.50221628
0.24538347 0.051659677 1.4133568 0.70753545
0.25048852 0.049276426 1.3481535 0.74175531
0.3656894 0.050439917 1.3799853 0.72464538
0.37409604 0.050439917 1.3799853 0.72464538
0.37367958 0.049276426 1.3481535 0.74175531
0.36926812 0.048165407 1.317757 0.75886524
0.37729567 0.048165407 1.317757 0.75886524
0.38075233 0.047103379 1.2887011 0.77597517
0.38405979 0.046087176 1.2608987 0.7930851
0.38235664 0.043285657 1.184252 0.84441483
-0.5385564 0.061957814 1.5647109 0.63909572
-0.55645072 0.073814891 1.8641548 0.53643614
-0.5761711 0.078844465 1.991174 0.50221628
-0.56404114 0.078844465 1.991174 0.50221628
-0.5713774 0.081625342 2.0614035 0.48510638
-0.57925004 0.084609561 2.1367683 0.46799645
-0.57420945 0.087820269 2.2178531 0.45088649
-0.59212708 0.095032737 2.4000001 0.41666666
-0.5409556 0.095032737 2.4000001 0.41666666
-0.47287837 0.087820269 2.2178531 0.45088649
-0.44257307 0.084609561 2.1367683 0.46799645
-0.41440558 0.081625342 2.0614035 0.48510638
-0.37045348 0.081625342 2.0614035 0.48510638
-0.37098038 0.084609561 2.1367683 0.46799645
-0.36447194 0.084609561 2.1367683 0.46799645
-0.36479187 0.087820269 2.2178531 0.45088649
-0.38013095 0.095032737 2.4000001 0.41666666
-0.3058961 0.084609561 2.1367683 0.46799645
-0.30702886 0.095032737 2.4000001 0.41666666
0.2062086 0.078844465 1.991174 0.50221628
0.24761525 0.071533293 1.8065344 0.55354607
0.30324793 0.078844465 1.991174 0.50221628
0.24705282 0.057351548 1.4483821 0.69042552
0.24968845 0.055964649 1.4133568 0.70753545
0.26332107 0.046892796 1.184252 0.84441483
0.26692823 0.046892796 1.184252 0.84441483
0.27053535 0.046892796 1.184252 0.84441483
0.2741425 0.046892796 1.184252 0.84441483
0.27774963 0.046892796 1.184252 0.84441483
0.37729567 0.052179188 1.317757 0.75886524
0.38075233 0.051028661 1.2887011 0.77597517
0.38021919 0.049927771 1.2608987 0.7930851
-0.5761711 0.084909424 1.991174 0.50221628
-0.56404114 0.084909424 1.991174 0.50221628
-0.5713774 0.087904215 2.0614035 0.48510638
-0.57925004 0.091117986 2.1367683 0.46799645
-0.62136793 0.10234295 2.4000001 0.41666666
-0.59212708 0.10234295 2.4000001 0.41666666
-0.57750666 0.10234295 2.4000001 0.41666666
